ply
format ascii 1.0
element vertex 588
property float x
property float y
property float z
property uchar red
property uchar green
property uchar blue
end_header
9.863413652055897e-06 -2.543686787248589e-05 -3.682779424707405e-05 128 128 128
9.863413652055897e-06 -2.543686787248589e-05 -3.682779424707405e-05 128 128 128
7.496100806747563e-06 -1.8450866264174692e-05 -2.4943003154476173e-05 128 128 128
4.1119096749753226e-06 -4.3511832359399705e-07 -7.067242677294416e-06 128 128 128
8.206256097764708e-06 -2.284485708514694e-05 -3.0702805815963075e-05 128 128 128
4.72526517114602e-06 9.633373338147067e-06 -8.787596925685648e-06 128 128 128
7.594225280627143e-06 -2.234353087260388e-05 -2.911697083618492e-05 128 128 128
7.594225280627143e-06 -2.234353087260388e-05 -2.911697083618492e-05 128 128 128
8.943289685703348e-06 -2.6639780116965994e-05 -3.667674900498241e-05 128 128 128
7.357202775892802e-06 -2.202590803790372e-05 -2.835767918440979e-05 128 128 128
7.545273547293618e-06 -2.4048584236879833e-05 -3.017211565747857e-05 128 128 128
1.1526009075168986e-05 -3.6218214518157765e-05 -5.2610626880778e-05 128 128 128
3.252541091569583e-06 -4.58875820186222e-06 -5.733684247388737e-06 128 128 128
1.1327819265716244e-05 -3.758973252843134e-05 -5.299459371599369e-05 128 128 128
5.758351562690223e-06 -1.8694256141316146e-05 -2.153249988623429e-05 128 128 128
5.036779384681722e-06 -1.7139649571618065e-05 -1.8304035620531067e-05 128 128 128
6.808766556787305e-06 -2.3262662580236793e-05 -2.8759402994182892e-05 128 128 128
5.145783234183909e-06 -1.7946049410966225e-05 -1.9352406525285915e-05 128 128 128
2.8835274861194193e-06 -4.128473847231362e-06 -5.0074668251909316e-06 128 128 128
7.924991223262623e-06 -2.7430027330410667e-05 -3.5653796658152714e-05 128 128 128
5.520529157365672e-06 -2.0063425836269744e-05 -2.2176709535415284e-05 128 128 128
7.786111382301897e-06 -2.8399505026754923e-05 -3.6562625609803945e-05 128 128 128
4.246548996889032e-06 -1.7054919226211496e-05 -1.6395199054386467e-05 128 128 128
4.609841653291369e-06 -1.8465927496436052e-05 -1.864076875790488e-05 128 128 128
4.609841653291369e-06 -1.8465927496436052e-05 -1.864076875790488e-05 128 128 128
6.067501090001315e-06 -2.3543705538031645e-05 -2.7347516152076423e-05 128 128 128
7.02204488334246e-06 -2.7265106837148778e-05 -3.3419037208659574e-05 128 128 128
4.143279966228874e-06 -1.7529968317830935e-05 -1.6620566384517588e-05 128 128 128
3.9683791328570805e-06 -1.725968650134746e-05 -1.5969140804372728e-05 128 128 128
6.7336072788748425e-06 -2.882523949665483e-05 -3.4614786272868514e-05 128 128 128
1.5107062608876731e-05 -5.7513025240041316e-05 -9.657414193497971e-05 128 128 128
-7.503772394557018e-06 -2.1772957552457228e-05 5.862450416316278e-05 128 128 128
7.68520294514019e-06 -3.3280022762482986e-05 -4.1917242924682796e-05 128 128 128
1.5179842193902005e-05 -6.034484977135435e-05 -9.878102719085291e-05 128 128 128
1.5179842193902005e-05 -6.034484977135435e-05 -9.878102719085291e-05 128 128 128
6.000111170578748e-06 -2.6978317691828124e-05 -3.135305087198503e-05 128 128 128
1.5952632566040847e-06 -2.1580459019787668e-07 -2.2823940071248217e-06 128 128 128
3.6000521959067555e-06 -2.0002871679025702e-05 -1.753507422108669e-05 128 128 128
7.697185537836049e-06 -3.5957215004600585e-05 -4.4919619540451095e-05 128 128 128
7.094567081367131e-06 -3.339444810990244e-05 -4.098830686416477e-05 128 128 128
5.495067398442188e-06 -2.7477417461341247e-05 -3.068865044042468e-05 128 128 128
7.246466338983737e-06 -3.451705924817361e-05 -4.2648760427255183e-05 128 128 128
9.055391274159774e-06 -4.285814065951854e-05 -5.5454082030337304e-05 128 128 128
2.8136150831414852e-06 -1.8406608432997018e-05 -1.4310379810922313e-05 128 128 128
7.493232260458171e-06 -3.6850546166533604e-05 -4.557959982776083e-05 128 128 128
2.6049769985547755e-06 -1.9550670913304202e-05 -1.470479037379846e-05 128 128 128
2.4145144834619714e-06 -1.9116027033305727e-05 -1.4007008758198936e-05 128 128 128
2.249404360554763e-06 -1.8807795640896074e-05 -1.3343497812456917e-05 128 128 128
1.932736950038816e-06 -1.7678221411188133e-05 -1.127161431213608e-05 128 128 128
1.862100361904595e-06 -1.8019720300799236e-05 -1.133654313889565e-05 128 128 128
2.1720436507166596e-06 -2.000597487494815e-05 -1.4223396647139452e-05 128 128 128
1.6953270005615195e-06 -1.8860999261960387e-05 -1.1914563401660416e-05 128 128 128
1.5117494740479742e-06 -1.9506458556861617e-05 -1.1825553883682005e-05 128 128 128
1.111156393562851e-07 8.325381486429251e-07 5.319862452779489e-07 128 128 128
5.727035386371426e-06 -3.999071486759931e-05 -4.613609053194523e-05 128 128 128
5.2487393986666575e-06 -3.875935362884775e-05 -4.392455593915656e-05 128 128 128
1.1820235386039712e-06 -2.1674384697689675e-05 -1.3216311344876885e-05 128 128 128
5.003756086807698e-06 -3.8936010241741315e-05 -4.3553547584451735e-05 128 128 128
1.4658530744782183e-07 -1.7419917639927007e-05 -5.787446298199939e-06 128 128 128
5.295707978802966e-07 -1.9781075025093742e-05 -9.304193554271478e-06 128 128 128
3.911069597961614e-06 -3.5234879760537297e-05 -3.7519326724577695e-05 128 128 128
3.911069597961614e-06 -3.5234879760537297e-05 -3.7519326724577695e-05 128 128 128
1.6541870309083606e-06 -2.6276989956386387e-05 -1.994843660213519e-05 128 128 128
3.9466262933274265e-06 -3.738463783520274e-05 -3.94359631172847e-05 128 128 128
4.8911847443378065e-06 -4.291873119655065e-05 -4.8205787607003e-05 128 128 128
-1.0655967344064265e-06 -1.347826469100255e-06 3.125536522929906e-06 128 128 128
3.958233264711453e-06 -3.811053102253936e-05 -4.041007559862919e-05 128 128 128
8.910960218599939e-07 -2.4074055545497686e-05 -1.551048808323685e-05 128 128 128
3.4803542803274468e-06 -3.7528770917560905e-05 -3.8613088690908626e-05 128 128 128
-5.622442813546513e-07 -1.9514875020831823e-05 -5.603097179118777e-06 128 128 128
7.790271752128319e-07 -2.579015381343197e-05 -1.6870308172656223e-05 128 128 128
-1.2626416037164745e-06 -1.7444113836972974e-05 -1.2125249213568168e-06 128 128 128
1.254021299246233e-06 -3.154847217956558e-05 -2.3590155251440592e-05 128 128 128
-6.8293866206659e-07 -2.125408900610637e-05 -7.102442395989783e-06 128 128 128
2.7741339181375224e-06 -3.905896301148459e-05 -3.895092595485039e-05 128 128 128
-4.967951099388301e-07 -2.230847348982934e-05 -9.090986168303061e-06 128 128 128
-4.967951099388301e-07 -2.230847348982934e-05 -9.090986168303061e-06 128 128 128
-2.599077220111212e-07 -2.379604848101735e-05 -1.1469874152680859e-05 128 128 128
-1.6246779068751493e-06 -1.7558522813487798e-05 -6.384341588727693e-08 128 128 128
2.5254666979890317e-06 -3.912251122528687e-05 -3.838575867121108e-05 128 128 128
-1.3722014955419581e-06 -1.9663044440676458e-05 -3.103300514339935e-06 128 128 128
-1.6124386092997156e-06 -1.8481610823073424e-05 -1.1707010116879246e-06 128 128 128
1.0750668479886372e-06 -3.2861797080840915e-05 -2.6968053134623915e-05 128 128 128
1.763229988682724e-06 -3.827685577562079e-05 -3.578955147531815e-05 128 128 128
-1.0360347459936747e-06 -2.317182588740252e-05 -8.35039736557519e-06 128 128 128
-1.0360347459936747e-06 -2.317182588740252e-05 -8.35039736557519e-06 128 128 128
-1.0360347459936747e-06 -2.317182588740252e-05 -8.35039736557519e-06 128 128 128
1.682022116256121e-06 -3.8179303373908624e-05 -3.53755422111135e-05 128 128 128
-1.9466294816083973e-06 -1.884046105260495e-05 -3.799442538365838e-07 128 128 128
-2.140694050467573e-06 -1.8126364011550322e-05 1.0879947467401507e-06 128 128 128
-1.8930877558887005e-06 -1.9553215679479763e-05 -1.3977130493003642e-06 128 128 128
-1.0790638498292537e-06 -2.3933838747325353e-05 -9.219143976224586e-06 128 128 128
-2.255648496429785e-06 -1.8367161828791723e-05 1.4429418797590188e-06 128 128 128
-2.255648496429785e-06 -1.8367161828791723e-05 1.4429418797590188e-06 128 128 128
-9.940365544025553e-07 -2.563851376180537e-05 -1.1544956578291021e-05 128 128 128
-2.7148826120537706e-06 -2.4515786662959727e-06 7.286346772161778e-06 128 128 128
-2.7213072826270945e-06 -2.469274932082044e-06 7.308311069209594e-06 128 128 128
2.023284082497412e-07 -3.304382335045375e-05 -2.520603266020771e-05 128 128 128
-2.322338104931987e-06 -1.9607336071203463e-05 2.493953843440977e-07 128 128 128
-2.4442658741463674e-06 -1.9352321032783948e-05 7.309557190637861e-07 128 128 128
-2.604036353659467e-06 -1.8885857571149245e-05 2.0852871784882154e-06 128 128 128
3.379496718025621e-07 -3.5417164326645434e-05 -2.8332256988505833e-05 128 128 128
3.379496718025621e-07 -3.5417164326645434e-05 -2.8332256988505833e-05 128 128 128
-3.0407979920710204e-06 -4.0793024709273595e-06 8.239770068030339e-06 128 128 128
-2.0762332297863395e-08 -3.398197441129014e-05 -2.5398165234946646e-05 128 128 128
-2.6578129563858965e-06 -1.9721128410310484e-05 1.440019445908547e-06 128 128 128
-2.6578129563858965e-06 -1.9721128410310484e-05 1.440019445908547e-06 128 128 128
-2.9684724722756073e-06 -1.820093166315928e-05 4.213094143779017e-06 128 128 128
-2.9684724722756073e-06 -1.820093166315928e-05 4.213094143779017e-06 128 128 128
-3.3507781154185068e-06 -5.048754701419966e-06 9.223781489708927e-06 128 128 128
-3.3507781154185068e-06 -5.048754701419966e-06 9.223781489708927e-06 128 128 128
-4.927868531012791e-07 -3.346388984937221e-05 -2.3618724299012683e-05 128 128 128
-1.8194215272160363e-06 -2.5800683943089098e-05 -9.228237104252912e-06 128 128 128
-1.8194215272160363e-06 -2.5800683943089098e-05 -9.228237104252912e-06 128 128 128
-2.6000310526796966e-07 -3.599591946112923e-05 -2.774716995190829e-05 128 128 128
-1.1041319112337078e-06 -3.1101455533644184e-05 -1.8378832464804873e-05 128 128 128
-3.8869049490131147e-07 -3.6283938243286684e-05 -2.7672087526298128e-05 128 128 128
-2.1868127078050748e-06 -2.4586286599515006e-05 -6.437117008317728e-06 128 128 128
-9.89729073808121e-07 -3.2386855309596285e-05 -2.0873043467872776e-05 128 128 128
-9.89729073808121e-07 -3.2386855309596285e-05 -2.0873043467872776e-05 128 128 128
-3.1566476081934525e-06 -1.9764655007747933e-05 3.3366216030117357e-06 128 128 128
-1.8328890973862144e-06 -2.7352492907084525e-05 -1.0997009667335078e-05 128 128 128
-2.4792266231088433e-06 -2.4340008167200722e-05 -5.041250005888287e-06 128 128 128
-2.534874511184171e-06 -2.421883436909411e-05 -4.6927571020205505e-06 128 128 128
-1.6306041743519017e-06 -3.2524141715839505e-05 -1.9532595615601167e-05 128 128 128
-1.7365409803460352e-06 -3.20136641676072e-05 -1.833902751968708e-05 128 128 128
-1.890975795504346e-06 -3.136473605991341e-05 -1.653930485190358e-05 128 128 128
-3.933996595151257e-06 -1.840902041294612e-05 7.983690011315048e-06 128 128 128
-1.7700451735436218e-06 -3.2346950320061296e-05 -1.849663385655731e-05 128 128 128
-3.875828042509966e-06 -1.9077182514593005e-05 7.053746685414808e-06 128 128 128
-4.031965545436833e-06 -1.8847751562134363e-05 8.137025361065753e-06 128 128 128
-3.1033725917950505e-06 -2.4349228624487296e-05 -2.670689809747273e-06 128 128 128
-4.260949935996905e-06 -6.1511459534813184e-06 1.1964157238253392e-05 128 128 128
-4.323508619563654e-06 -6.906210728629958e-06 1.2350671568128746e-05 128 128 128
-4.32270098826848e-06 -6.253668288991321e-06 1.2186164894956164e-05 128 128 128
-3.6671819998446153e-06 -2.2233945855987258e-05 2.361121232752339e-06 128 128 128
-4.356287263362901e-06 -5.555881671170937e-06 1.2189288099762052e-05 128 128 128
-2.4629284780530725e-06 -3.130141340079717e-05 -1.4494983588519972e-05 128 128 128
-4.343832188169472e-06 -1.8793249182635918e-05 9.624612175684888e-06 128 128 128
-3.577848247005022e-06 -2.3670500013395213e-05 2.454263210438512e-07 128 128 128
-3.940363967558369e-06 -2.1442083379952237e-05 4.731539775093552e-06 128 128 128
-4.462107426661532e-06 -1.8169545001001097e-05 1.0736815056588966e-05 128 128 128
-3.5584912438935135e-06 -2.4305025362991728e-05 -7.420501333399443e-07 128 128 128
-3.1295764983951813e-06 -2.775698885670863e-05 -7.24354367775959e-06 128 128 128
-2.773865389826824e-06 -3.064729389734566e-05 -1.2799037904187571e-05 128 128 128
-2.773865389826824e-06 -3.064729389734566e-05 -1.2799037904187571e-05 128 128 128
-3.848367214231985e-06 -2.302329994563479e-05 2.213794005001546e-06 128 128 128
-2.5576848656783113e-06 -3.258480501244776e-05 -1.64143511938164e-05 128 128 128
-2.753286253209808e-06 -3.13431846734602e-05 -1.3846371075487696e-05 128 128 128
-4.553443432087079e-06 -1.8961169189424254e-05 1.0416374607302714e-05 128 128 128
-4.7316088966908865e-06 -7.371713309112238e-06 1.3725950338994153e-05 128 128 128
-4.7316088966908865e-06 -7.371713309112238e-06 1.3725950338994153e-05 128 128 128
-4.594244728650665e-06 -1.911735125759151e-05 1.0478647709533107e-05 128 128 128
-4.0750851439952385e-06 -2.2518219338962808e-05 3.883274985128082e-06 128 128 128
-4.766379333887016e-06 -1.80791066668462e-05 1.224146308231866e-05 128 128 128
-4.766379333887016e-06 -1.80791066668462e-05 1.224146308231866e-05 128 128 128
-4.562984031508677e-06 -1.9599970983108506e-05 9.694870641396847e-06 128 128 128
-2.8535416731756413e-06 -3.3028318284777924e-05 -1.5993085980881006e-05 128 128 128
-2.8535416731756413e-06 -3.3028318284777924e-05 -1.5993085980881006e-05 128 128 128
-3.8099758512544213e-06 -2.5780933356145397e-05 -1.7653126178629464e-06 128 128 128
-3.6928279314452084e-06 -2.6878442440647632e-05 -3.754860017579631e-06 128 128 128
-3.6928279314452084e-06 -2.6878442440647632e-05 -3.754860017579631e-06 128 128 128
-3.6053324947715737e-06 -2.7772231987910345e-05 -5.464814876177115e-06 128 128 128
-3.1996758025343297e-06 -3.123283022432588e-05 -1.2194302144052926e-05 128 128 128
-3.1996758025343297e-06 -3.123283022432588e-05 -1.2194302144052926e-05 128 128 128
-4.862448349740589e-06 -1.9327695554238744e-05 1.1689616258081514e-05 128 128 128
-4.975197953172028e-06 -1.8575097783468664e-05 1.2960874300915748e-05 128 128 128
-3.962739356211387e-06 -2.5407956854905933e-05 -6.897593038956984e-07 128 128 128
-3.885462774633197e-06 -2.6085032004630193e-05 -1.9734404759219615e-06 128 128 128
-4.379199708637316e-06 -2.3515995053458028e-05 3.965904852520907e-06 128 128 128
-4.092790732102003e-06 -2.5670911782071926e-05 -4.943896669828973e-07 128 128 128
-3.586903403629549e-06 -3.0205555958673358e-05 -9.28386998566566e-06 128 128 128
-4.584461748891044e-06 -2.2819614969193935e-05 5.685630640073214e-06 128 128 128
-4.584461748891044e-06 -2.2819614969193935e-05 5.685630640073214e-06 128 128 128
-4.581165740091819e-06 -2.350340218981728e-05 4.71884732178296e-06 128 128 128
-4.581165740091819e-06 -2.350340218981728e-05 4.71884732178296e-06 128 128 128
-3.5200748698116513e-06 -3.2534611818846315e-05 -1.3358415344555397e-05 128 128 128
-4.935653123538941e-06 -2.1212406863924116e-05 9.75708280748222e-06 128 128 128
-4.935653123538941e-06 -2.1212406863924116e-05 9.75708280748222e-06 128 128 128
-4.951726168656023e-06 -2.1214904336375184e-05 9.889212378766388e-06 128 128 128
-4.292088760848856e-06 -2.6576995878713205e-05 -8.872792136571661e-07 128 128 128
-4.155246642767452e-06 -2.7720261641661637e-05 -3.346759513078723e-06 128 128 128
-5.307148512656568e-06 -1.9406566934776492e-05 1.3932416550233029e-05 128 128 128
-4.866384188062511e-06 -2.2999131033429876e-05 7.119503152352991e-06 128 128 128
-4.866384188062511e-06 -2.2999131033429876e-05 7.119503152352991e-06 128 128 128
-5.297456937114475e-06 -1.97984445549082e-05 1.3412908629106823e-05 128 128 128
-4.448145318747265e-06 -2.6972869818564504e-05 -1.9063205058955646e-07 128 128 128
-5.106628123030532e-06 -2.134591522917617e-05 1.0510155334486626e-05 128 128 128
-5.473230885399971e-06 -1.905071985675022e-05 1.548281761643011e-05 128 128 128
-4.660395916289417e-06 -2.5617202481953427e-05 2.0643237803597003e-06 128 128 128
-5.501479790837038e-06 -1.9363860701560043e-05 1.5134192835830618e-05 128 128 128
-5.660083843395114e-06 -1.871491076599341e-05 1.6784855688456446e-05 128 128 128
-5.660083843395114e-06 -1.871491076599341e-05 1.6784855688456446e-05 128 128 128
-5.557957592827734e-06 -1.934266765601933e-05 1.543830512673594e-05 128 128 128
-5.557957592827734e-06 -1.934266765601933e-05 1.543830512673594e-05 128 128 128
-5.599879386863904e-06 -1.9263145077275112e-05 1.5904406609479338e-05 128 128 128
-5.002971647627419e-06 -2.3305281501961872e-05 6.930382824066328e-06 128 128 128
-5.710673576686531e-06 -1.864821206254419e-05 1.7072017726604827e-05 128 128 128
-5.674094154528575e-06 -1.8962622561957687e-05 1.642740608076565e-05 128 128 128
-4.685889052780112e-06 -2.7213354769628495e-05 -1.3333497861367505e-08 128 128 128
-4.6897571337467525e-06 -2.7212887289351784e-05 -3.538590931384533e-08 128 128 128
-4.822554728889372e-06 -2.6382895157439634e-05 1.8014735587712494e-06 128 128 128
-4.923508186038816e-06 -2.5710283807711676e-05 3.5213518003729405e-06 128 128 128
-4.966155756847002e-06 -2.515270716685336e-05 4.2555484469630755e-06 128 128 128
-4.966155756847002e-06 -2.515270716685336e-05 4.2555484469630755e-06 128 128 128
-5.732494173571467e-06 -1.938068453455344e-05 1.6572421372984536e-05 128 128 128
-5.378129117161734e-06 -2.185188168368768e-05 1.1219790394534357e-05 128 128 128
-4.659505975723732e-06 -2.845128983608447e-05 -2.5255501441279193e-06 128 128 128
-5.405065166996792e-06 -2.2114139937912114e-05 1.1239021660003345e-05 128 128 128
-4.833875664189691e-06 -2.686680090846494e-05 9.523993185212021e-07 128 128 128
-4.65875564259477e-06 -2.912682612077333e-05 -3.445545416980167e-06 128 128 128
-5.2705004236486275e-06 -2.3489081286243163e-05 8.405844710068777e-06 128 128 128
-5.33707225258695e-06 -2.2960226488066837e-05 9.376606612931937e-06 128 128 128
-5.33707225258695e-06 -2.2960226488066837e-05 9.376606612931937e-06 128 128 128
-4.739262294606306e-06 -2.8678397939074785e-05 -2.4215260054916143e-06 128 128 128
-5.5615469136682805e-06 -2.134541136911139e-05 1.3083829799143132e-05 128 128 128
-5.744637292082189e-06 -1.993100522668101e-05 1.5921092199278064e-05 128 128 128
-5.744637292082189e-06 -1.993100522668101e-05 1.5921092199278064e-05 128 128 128
-5.502602107299026e-06 -2.1861036657355726e-05 1.1977095709880814e-05 128 128 128
-4.900150088360533e-06 -2.736543865466956e-05 4.158127637765574e-07 128 128 128
-4.900150088360533e-06 -2.736543865466956e-05 4.158127637765574e-07 128 128 128
-4.683610768552171e-06 -3.085325806750916e-05 -6.118431883805897e-06 128 128 128
-1.2234105497554992e-06 -3.0712963052792475e-05 -2.16243297472829e-05 128 128 128
-5.125250027049333e-06 -2.645850690896623e-05 3.285256980234408e-06 128 128 128
-5.164104550203774e-06 -2.599206709419377e-05 3.969014414906269e-06 128 128 128
-5.534881438507e-06 -2.2669491954729892e-05 1.1046299732697662e-05 128 128 128
-5.665725439030211e-06 -2.1716110495617613e-05 1.327445079368772e-05 128 128 128
-5.6094945648510475e-06 -2.3239201254909858e-05 1.0533743989071809e-05 128 128 128
-5.271054760669358e-06 -2.673424569366034e-05 3.362192273925757e-06 128 128 128
-6.022543402650626e-06 -1.988604708458297e-05 1.773674193827901e-05 128 128 128
-5.342144049791386e-06 -2.696531555557158e-05 3.546826064848574e-06 128 128 128
-6.156873951113084e-06 -1.9264536604168825e-05 1.909825914481189e-05 128 128 128
-5.547446562559344e-06 -2.544348535593599e-05 7.266639386216411e-06 128 128 128
-5.547446562559344e-06 -2.544348535593599e-05 7.266639386216411e-06 128 128 128
-5.912586402700981e-06 -2.178312024625484e-05 1.4711329640704207e-05 128 128 128
-6.236009994609049e-06 -1.9146586055285297e-05 2.0019759176648222e-05 128 128 128
-5.437598701973911e-06 -2.732032044150401e-05 3.1674467209086288e-06 128 128 128
-5.252421487966785e-06 -3.0004948712303303e-05 -2.0624058834073367e-06 128 128 128
-5.1998626986460295e-06 -3.0654340662295e-05 -3.3241460641875165e-06 128 128 128
-5.9396647884568665e-06 -2.2456211809185334e-05 1.3698805560125038e-05 128 128 128
-5.778826107416535e-06 -2.4166012735804543e-05 1.0083332199428696e-05 128 128 128
-5.778826107416535e-06 -2.4166012735804543e-05 1.0083332199428696e-05 128 128 128
-5.267887445370434e-06 -3.0865157896187156e-05 -3.3018916383298347e-06 128 128 128
-5.61039360036375e-06 -2.6382957003079355e-05 5.52074334336794e-06 128 128 128
-5.627285645459779e-06 -2.6628371415426955e-05 5.28809732713853e-06 128 128 128
-6.1339305830188096e-06 -2.1574489437625743e-05 1.6638945453451015e-05 128 128 128
-6.1339305830188096e-06 -2.1574489437625743e-05 1.6638945453451015e-05 128 128 128
-6.248279532883316e-06 -2.1246893084025942e-05 1.7746429875842296e-05 128 128 128
-6.248279532883316e-06 -2.1246893084025942e-05 1.7746429875842296e-05 128 128 128
-5.985188181512058e-06 -2.4446373572573066e-05 1.1268436537648086e-05 128 128 128
-6.135275725682732e-06 -2.2922602511243895e-05 1.4557062968378887e-05 128 128 128
-6.250932983675739e-06 -2.1929778085905127e-05 1.6616810171399266e-05 128 128 128
-5.982243237667717e-06 -2.584218054835219e-05 8.617242201580666e-06 128 128 128
-6.5949229792749975e-06 -1.9506718672346324e-05 2.224473064416088e-05 128 128 128
-6.46379385216278e-06 -2.1278259737300687e-05 1.9369084839127026e-05 128 128 128
-6.703245617245557e-06 -1.9787428755080327e-05 2.2990911020315252e-05 128 128 128
-6.7184150793764275e-06 -2.0031815438414924e-05 2.2666308723273687e-05 128 128 128
-6.105220109020593e-06 -2.985194259963464e-05 2.968805802083807e-06 128 128 128
-6.8641156758531e-06 -1.9486131350276992e-05 2.452663284202572e-05 128 128 128
-6.8641156758531e-06 -1.9486131350276992e-05 2.452663284202572e-05 128 128 128
-6.562393082276685e-06 -2.2511898350785486e-05 1.804605381039437e-05 128 128 128
-6.182748165883822e-06 -2.9662076485692523e-05 2.706550276343478e-06 128 128 128
-6.386180757544935e-06 -2.7065370886703022e-05 8.709192115929909e-06 128 128 128
-6.546732038259506e-06 -2.4420554836979136e-05 1.4920094145054463e-05 128 128 128
-6.957821369724115e-06 -1.9741853975574486e-05 2.5333998564747162e-05 128 128 128
-6.977099019422894e-06 -1.954008621396497e-05 2.557531843194738e-05 128 128 128
-6.3475263232248835e-06 -2.9021086447755806e-05 4.9581781240704e-06 128 128 128
-6.618164206884103e-06 -2.3512782718171366e-05 1.6861709809745662e-05 128 128 128
-6.671133178315358e-06 -2.3700418751104735e-05 1.7619011487113312e-05 128 128 128
-6.545831638504751e-06 -2.5674995413282886e-05 1.2628371223399881e-05 128 128 128
-6.695107458654093e-06 -2.369661524426192e-05 1.753571086737793e-05 128 128 128
-7.0541327659157105e-06 -1.9652166884043254e-05 2.626437162689399e-05 128 128 128
-7.0541327659157105e-06 -1.9652166884043254e-05 2.626437162689399e-05 128 128 128
-6.517441306641558e-06 -2.706833038246259e-05 9.482332643528935e-06 128 128 128
-6.509297691081883e-06 -2.7582560505834408e-05 8.755000635574106e-06 128 128 128
-6.951564046175918e-06 -2.1216443201410584e-05 2.3637299818801694e-05 128 128 128
-6.951564046175918e-06 -2.1216443201410584e-05 2.3637299818801694e-05 128 128 128
-6.819344434916275e-06 -2.280277658428531e-05 1.9659699319163337e-05 128 128 128
-7.198091225291137e-06 -2.0234960175002925e-05 2.7325775590725243e-05 128 128 128
-6.841537469881587e-06 -2.615569974295795e-05 1.3607061191578396e-05 128 128 128
-7.103527877916349e-06 -2.1606443624477834e-05 2.518746623536572e-05 128 128 128
-7.258171990542905e-06 -1.991280987567734e-05 2.8259499231353402e-05 128 128 128
-7.0457817855640315e-06 -2.340636092412751e-05 2.0914314518449828e-05 128 128 128
-7.2371517489955295e-06 -2.0812267393921502e-05 2.739637602644507e-05 128 128 128
-6.983877028687857e-06 -2.6742662157630548e-05 1.3701283023692667e-05 128 128 128
-7.099054073478328e-06 -2.3130569388740696e-05 2.175685040128883e-05 128 128 128
-7.35383173378068e-06 -2.0300516553106718e-05 2.9074917620164342e-05 128 128 128
-7.084648586896947e-06 -2.4894463422242552e-05 1.807149783417117e-05 128 128 128
-7.380740044027334e-06 -2.0252844478818588e-05 2.9558339520008303e-05 128 128 128
-7.414993888232857e-06 -2.0118566681048833e-05 3.000660399266053e-05 128 128 128
-7.181356977525866e-06 -2.328843402210623e-05 2.254783976241015e-05 128 128 128
-7.150551482482115e-06 -2.500477603462059e-05 1.8880415154853836e-05 128 128 128
-7.23453558748588e-06 -2.2597621864406392e-05 2.456302900100127e-05 128 128 128
-7.462982011929853e-06 -2.0097566448384896e-05 3.093317718594335e-05 128 128 128
-7.154455033742124e-06 -2.825239789672196e-05 1.0452545211592223e-05 128 128 128
-7.193905275926227e-06 -2.399319055257365e-05 2.1189613107708283e-05 128 128 128
-7.516169262089534e-06 -2.094537740049418e-05 3.073953484999947e-05 128 128 128
-7.387307505268836e-06 -2.3139606128097512e-05 2.5302619178546593e-05 128 128 128
-7.592278052470647e-06 -2.0459476218093187e-05 3.2623036531731486e-05 128 128 128
-7.592278052470647e-06 -2.0459476218093187e-05 3.2623036531731486e-05 128 128 128
-7.401835773634957e-06 -2.432658766338136e-05 2.310457784915343e-05 128 128 128
-7.401835773634957e-06 -2.432658766338136e-05 2.310457784915343e-05 128 128 128
-7.601778634125367e-06 -2.0890085579594597e-05 3.322102566016838e-05 128 128 128
-7.467323030141415e-06 -2.3794835215085186e-05 2.494007276254706e-05 128 128 128
-7.622295925102662e-06 -2.085470623569563e-05 3.2543568522669375e-05 128 128 128
-7.5193024713371415e-06 -2.5714140065247193e-05 2.003516783588566e-05 128 128 128
-7.5218858910375275e-06 -2.2395081032300368e-05 2.8514270525192842e-05 128 128 128
-7.687579454795923e-06 -2.0552444766508415e-05 3.479538281681016e-05 128 128 128
-7.622303655807627e-06 -2.1033363736933097e-05 3.374469088157639e-05 128 128 128
-7.527642083005048e-06 -2.3697628421359695e-05 2.6386051104054786e-05 128 128 128
-7.527642083005048e-06 -2.3697628421359695e-05 2.6386051104054786e-05 128 128 128
-7.5342541094869375e-06 -2.325699824723415e-05 2.7532178137334995e-05 128 128 128
-7.551300313934917e-06 -2.3078320737113245e-05 2.8159543944639154e-05 128 128 128
-7.5486891546461266e-06 -2.2811536837252788e-05 2.8902550184284337e-05 128 128 128
-7.558972356491722e-06 -2.2810356313129887e-05 2.929133734141942e-05 128 128 128
-7.567511602246668e-06 -2.3245225747814402e-05 2.8328629923635162e-05 128 128 128
-7.596504474349786e-06 -2.3130980480345897e-05 2.9049910153844394e-05 128 128 128
-7.604502570757177e-06 -2.2439329768531024e-05 3.149959957227111e-05 128 128 128
-7.606322469655424e-06 -2.309724186488893e-05 3.003196070494596e-05 128 128 128
-7.602286586916307e-06 -2.327293623238802e-05 2.955759373435285e-05 128 128 128
-7.729069693596102e-06 -2.0918199879815802e-05 3.784858199651353e-05 128 128 128
-7.729069693596102e-06 -2.0918199879815802e-05 3.784858199651353e-05 128 128 128
-7.717383596173022e-06 -2.0983077774872072e-05 3.816248135990463e-05 128 128 128
-7.708131306571886e-06 -2.1065563487354666e-05 3.6966026527807117e-05 128 128 128
-7.6278502092463896e-06 -2.20694510062458e-05 3.3818385418271646e-05 128 128 128
-7.766646376694553e-06 -2.0838378986809403e-05 3.8154445064719766e-05 128 128 128
-7.766646376694553e-06 -2.0838378986809403e-05 3.8154445064719766e-05 128 128 128
-7.666935744055081e-06 -2.3757120288792066e-05 2.8649628802668303e-05 128 128 128
-7.674530024814885e-06 -2.3354123186436482e-05 3.0036389944143593e-05 128 128 128
-8.286076081276406e-06 -1.534489456389565e-05 3.14367534883786e-05 128 128 128
-7.635645488335285e-06 -2.2449390598922037e-05 3.2932272006291896e-05 128 128 128
-7.72662679082714e-06 -2.097103242704179e-05 3.898768773069605e-05 128 128 128
-7.69734560890356e-06 -2.1056750483694486e-05 3.845239552902058e-05 128 128 128
-7.69734560890356e-06 -2.1056750483694486e-05 3.845239552902058e-05 128 128 128
-7.769341209495906e-06 -2.0890987798338756e-05 3.945654316339642e-05 128 128 128
-7.639676368853543e-06 -2.2075917513575405e-05 3.438491694396362e-05 128 128 128
-7.691782229812816e-06 -2.1138341253390536e-05 3.821891368716024e-05 128 128 128
-7.645981895620935e-06 -2.236901673313696e-05 3.401499998290092e-05 128 128 128
-7.637774615432136e-06 -2.1524734620470554e-05 3.763302811421454e-05 128 128 128
-7.687176548643038e-06 -2.1041723812231794e-05 4.013649595435709e-05 128 128 128
-8.402910680160858e-06 -1.7219670553458855e-05 3.416515392018482e-05 128 128 128
-7.515165179938776e-06 -2.2861160687170923e-05 3.369157639099285e-05 128 128 128
-7.652675776625983e-06 -2.144715836038813e-05 3.8130954635562375e-05 128 128 128
-7.64988362789154e-06 -2.107966247422155e-05 4.0588063711766154e-05 128 128 128
-7.6200240073376335e-06 -2.1906191250309348e-05 3.678589200717397e-05 128 128 128
-7.665161319891922e-06 -2.097839387715794e-05 4.238712790538557e-05 128 128 128
-7.678618203499354e-06 -2.0977840904379264e-05 4.291279401513748e-05 128 128 128
-7.571223704871954e-06 -2.1427482352009974e-05 3.943905176129192e-05 128 128 128
-7.577486485388363e-06 -2.1608269889838994e-05 3.87337822758127e-05 128 128 128
-7.5478842518350575e-06 -2.1005229427828453e-05 4.214032742311247e-05 128 128 128
-7.5334492066758685e-06 -2.12605682463618e-05 4.0675400668988004e-05 128 128 128
-7.497172191506252e-06 -2.107006912410725e-05 4.181455369689502e-05 128 128 128
-7.4207036959705874e-06 -2.0910301827825606e-05 4.279302811482921e-05 128 128 128
-8.73501630849205e-06 -1.7072945411200635e-05 3.565663064364344e-05 128 128 128
-7.2399752752971835e-06 -2.028673952736426e-05 4.7161851398414e-05 128 128 128
-7.399176411126973e-06 -2.2339369024848565e-05 3.7025169149274006e-05 128 128 128
-7.179544809332583e-06 -2.029887036769651e-05 5.033860361436382e-05 128 128 128
-7.122648639779072e-06 -2.001982466026675e-05 4.868059841101058e-05 128 128 128
-7.147658834583126e-06 -2.0124021830270067e-05 4.924116365145892e-05 128 128 128
-8.788229933998082e-06 -1.8142371118301526e-05 3.744201239896938e-05 128 128 128
-6.792511157982517e-06 -1.9419727323111147e-05 5.3003928769612685e-05 128 128 128
-6.706091426167404e-06 -1.9264158254372887e-05 5.388111821957864e-05 128 128 128
-8.789290404820349e-06 -2.0136192688369192e-05 4.0858780266717076e-05 128 128 128
-7.772366188874003e-06 -2.162629425583873e-05 3.856775947497226e-05 128 128 128
-8.579363566241227e-06 -2.1796573491883464e-05 4.401744081405923e-05 128 128 128
-5.000364126317436e-06 -1.6192383554880507e-05 6.19138081674464e-05 128 128 128
-4.842080670641735e-06 -1.5905738109722733e-05 6.350524927256629e-05 128 128 128
-5.375035925681004e-06 -1.4859046132187359e-05 6.305715214693919e-05 128 128 128
-6.033566023688763e-06 -1.905756289488636e-05 6.146175292087719e-05 128 128 128
-5.8156601880909875e-06 -1.8441889551468194e-05 6.268821016419679e-05 128 128 128
-6.462674718932249e-06 -1.9931894712499343e-05 5.9744434111053124e-05 128 128 128
-5.746823717345251e-06 -1.8438426195643842e-05 6.332166231004521e-05 128 128 128
-5.766322374256561e-06 -1.895734021672979e-05 6.314631173154339e-05 128 128 128
-4.158617230132222e-06 -1.486468408984365e-05 6.680853402940556e-05 128 128 128
-5.541445261769695e-06 -1.8200595150119625e-05 6.430073699448258e-05 128 128 128
-6.21407025391818e-06 -1.998304287553765e-05 6.191671127453446e-05 128 128 128
-3.5540522276278352e-06 -1.4016346540302038e-05 7.032293797237799e-05 128 128 128
-3.626833176895161e-06 -1.3974886314827017e-05 6.925169145688415e-05 128 128 128
-5.2488676374196075e-06 -1.7933731214725412e-05 6.593039870494977e-05 128 128 128
-8.354551027878188e-06 -2.3830301870475523e-05 4.8276499001076445e-05 128 128 128
-3.193590373484767e-06 -1.3433229469228536e-05 7.161443500081077e-05 128 128 128
-1.1967769751208834e-05 -2.4896711693145335e-05 6.729248707415536e-05 128 128 128
-7.419003850372974e-06 -2.040074105025269e-05 4.507549601839855e-05 128 128 128
-4.817397439182969e-06 -1.871687527454924e-05 6.855992978671566e-05 128 128 128
-2.309656565557816e-06 -1.3185743227950297e-05 7.973866013344377e-05 128 128 128
-2.3755612801323878e-06 -1.221319780597696e-05 7.589784217998385e-05 128 128 128
-2.3755612801323878e-06 -1.221319780597696e-05 7.589784217998385e-05 128 128 128
-8.209270163206384e-06 -2.4627257516840473e-05 4.990308661945164e-05 128 128 128
-2.1464772999024717e-06 -1.1795194950536825e-05 7.669609476579353e-05 128 128 128
-4.577691470331047e-06 -1.899407106975559e-05 6.992212001932785e-05 128 128 128
-1.5522936109846341e-06 -1.1090519365097862e-05 7.96919412096031e-05 128 128 128
-3.762333335544099e-06 -1.6635645806672983e-05 7.377735164482147e-05 128 128 128
-1.380091930514027e-06 -1.0716114047681913e-05 8.014218474272639e-05 128 128 128
-4.050757524964865e-06 -1.783671359589789e-05 7.23779812688008e-05 128 128 128
-3.932888830604497e-06 -1.7637788914726116e-05 7.313836977118626e-05 128 128 128
-4.1689977479109075e-06 -1.9000461179530248e-05 7.19396339263767e-05 128 128 128
-7.204404823824007e-07 -1.0018788998422679e-05 8.334615267813206e-05 128 128 128
-3.50339951182832e-06 -1.7033333278959617e-05 7.513180025853217e-05 128 128 128
-7.749812539259437e-06 -2.6007883207057603e-05 5.3500760259339586e-05 128 128 128
4.547613841054954e-08 -9.056486305780709e-06 8.651972166262567e-05 128 128 128
-3.4610106922627892e-06 -1.7851996744866483e-05 7.504338282160461e-05 128 128 128
-3.4610106922627892e-06 -1.7851996744866483e-05 7.504338282160461e-05 128 128 128
-1.140057975135278e-06 -9.108164704230148e-06 8.864535629982129e-05 128 128 128
-3.292559540568618e-06 -1.774894008121919e-05 7.573259063065052e-05 128 128 128
-2.908937858592253e-06 -1.7812375517678447e-05 7.742543675703928e-05 128 128 128
-2.908937858592253e-06 -1.7812375517678447e-05 7.742543675703928e-05 128 128 128
2.6271786524034724e-08 -8.580035682825837e-06 9.016450349008664e-05 128 128 128
2.0137611045356607e-06 -7.84955409471877e-06 9.45171996136196e-05 128 128 128
-1.9987094219686696e-06 -1.6672322090016678e-05 8.081387932179496e-05 128 128 128
3.326922751512029e-06 -4.426077339303447e-06 9.832319483393803e-05 128 128 128
3.350034830873483e-06 -8.67529433890013e-06 0.00010246525926049799 128 128 128
3.350034830873483e-06 -8.67529433890013e-06 0.00010246525926049799 128 128 128
4.8448832785652485e-06 -3.03440856441739e-06 0.00010397144797025248 128 128 128
-3.7045333556307014e-07 -1.3274325283418875e-05 8.095170051092282e-05 128 128 128
6.126013431639876e-06 -4.813660325453384e-06 0.00010924584057647735 128 128 128
-4.4435719246394e-06 -2.9486127459676936e-05 6.898269930388778e-05 128 128 128
7.907556209829636e-06 -3.0146832159516634e-06 0.00011413023457862437 128 128 128
-4.271473244443769e-06 -2.9958042432554066e-05 6.948901136638597e-05 128 128 128
8.134390554914717e-06 -4.412471298564924e-06 0.00011463972623459995 128 128 128
1.1278858437435701e-05 1.5158911992330104e-06 0.0001239264092873782 128 128 128
1.6204026906052604e-05 8.401212653552648e-06 0.00013719062553718686 128 128 128
-7.52198457121267e-06 -1.772599898686167e-05 7.258888945216313e-05 128 128 128
1.594600144017022e-05 6.711927653668681e-06 0.00013622587721329182 128 128 128
-2.222579041699646e-06 -3.147836832795292e-05 7.611522596562281e-05 128 128 128
1.5524998161708936e-05 5.194854111323366e-06 0.00013467679673340172 128 128 128
1.4265156096371356e-05 -1.472032408855739e-06 0.00012954630074091256 128 128 128
-2.3881807464931626e-07 -3.313250999781303e-05 8.17584223113954e-05 128 128 128
2.3876375053077936e-05 1.6240506738540716e-05 0.00015637512842658907 128 128 128
1.5235028513416182e-05 -7.758999345242046e-06 0.00013136294728610665 128 128 128
-2.6780392659020436e-07 -3.300049502286129e-05 8.134866220643744e-05 128 128 128
-2.8802892870771757e-07 -3.272743197157979e-05 8.106205496005714e-05 128 128 128
3.0410083127208054e-05 1.9247592717874795e-05 0.0001695575483608991 128 128 128
3.1708190363133326e-05 1.9276125385658816e-05 0.00017142682918347418 128 128 128
2.9728278605034575e-05 1.2049705219396856e-05 0.000163102347869426 128 128 128
3.73257012142858e-06 -3.531645779730752e-05 9.041635348694399e-05 128 128 128
3.6478286347119138e-06 -3.507945075398311e-05 8.96684723556973e-05 128 128 128
3.563755399227375e-06 -3.484894477878697e-05 8.893783524399623e-05 128 128 128
6.395887794496957e-06 -3.669177749543451e-05 9.476826380705461e-05 128 128 128
1.5463387171621434e-05 -1.9907609384972602e-05 -1.7661914171185344e-05 128 128 128
1.5498681023018435e-05 -1.7352023860439658e-05 -2.161157135560643e-05 128 128 128
1.7161311916424893e-05 -1.2476044503273442e-05 -3.2357133022742346e-05 128 128 128
1.714443351374939e-05 -1.195473214465892e-05 -3.3678661566227674e-05 128 128 128
-1.2170540685474407e-05 3.499807917251019e-06 3.6444664146983996e-05 128 128 128
1.6728819900890812e-05 -1.1052742593165021e-05 -3.649176869657822e-05 128 128 128
1.3076027244096622e-05 -1.2611545571417082e-05 -3.216296681785025e-05 128 128 128
1.7348716937704012e-05 -1.0852584637177642e-05 -3.6329918657429516e-05 128 128 128
7.431354333675699e-06 -1.0833153282874264e-05 -1.782078470569104e-05 128 128 128
1.1236739737796597e-05 -1.969476397789549e-05 -2.1360972823458724e-05 128 128 128
1.2495738701545633e-05 -1.2559407878143247e-05 -3.4527121897554025e-05 128 128 128
1.7679483789834194e-05 -9.636213690100703e-06 -3.868123530992307e-05 128 128 128
1.767580397427082e-05 -9.306660103902686e-06 -3.917072535841726e-05 128 128 128
1.2985043213120662e-05 -1.2263971257198136e-05 -3.722403562278487e-05 128 128 128
1.2981930012756493e-05 -1.226389122166438e-05 -3.7233672628644854e-05 128 128 128
1.3026997294218745e-05 -1.2214747584948782e-05 -3.814709634752944e-05 128 128 128
1.2169825822638813e-05 -1.2676809092226904e-05 -3.729483069037087e-05 128 128 128
1.2169825822638813e-05 -1.2676809092226904e-05 -3.729483069037087e-05 128 128 128
9.415624845132697e-06 -1.1799256753874943e-05 -2.659942038008012e-05 128 128 128
1.1950041880481876e-05 -1.2763976883434225e-05 -3.748781091417186e-05 128 128 128
1.1950041880481876e-05 -1.2763976883434225e-05 -3.748781091417186e-05 128 128 128
1.001272630674066e-05 -1.2097725630155765e-05 -2.859992855519522e-05 128 128 128
1.2564320968522225e-05 -1.2451138900360093e-05 -4.0057340811472386e-05 128 128 128
1.297579819947714e-05 -1.2012358638457954e-05 -4.116032141610049e-05 128 128 128
1.3208691598265432e-05 -1.1731493032129947e-05 -4.197677117190324e-05 128 128 128
1.201764553115936e-05 -1.2806718586944044e-05 -3.891067535732873e-05 128 128 128
1.1842945241369307e-05 -1.286247879761504e-05 -3.8244248571572825e-05 128 128 128
1.2774758943123743e-05 -1.217152203025762e-05 -4.159014861215837e-05 128 128 128
1.30981770780636e-05 -1.1775686289183795e-05 -4.234618609189056e-05 128 128 128
1.3143878277332988e-05 -1.1717480447259732e-05 -4.24655809183605e-05 128 128 128
1.2793933819921222e-05 -1.206828255817527e-05 -4.25709476985503e-05 128 128 128
1.3093095731164794e-05 -1.1590539543249179e-05 -4.3585132516454905e-05 128 128 128
1.2974174751434475e-05 -1.1765117051254492e-05 -4.3757405364885926e-05 128 128 128
1.225884352606954e-05 -1.2608552424353547e-05 -4.255289968568832e-05 128 128 128
1.1889176676049829e-05 -1.296061873290455e-05 -4.1468221752438694e-05 128 128 128
1.2660553693422116e-05 -1.2023284398310352e-05 -4.4418458855943754e-05 128 128 128
1.2833645996579435e-05 -1.1715564141923096e-05 -4.500314753386192e-05 128 128 128
1.1194357284693979e-05 -1.3347144886211026e-05 -3.964107236242853e-05 128 128 128
8.767553481447976e-06 -1.0440515325171873e-05 -2.477064663253259e-05 128 128 128
1.111195160774514e-05 -1.343210806226125e-05 -3.989583638031036e-05 128 128 128
1.2628578588191886e-05 -1.1898355296580121e-05 -4.581122993840836e-05 128 128 128
1.2779129974660464e-05 -1.1521653505042195e-05 -4.6187695261323825e-05 128 128 128
1.2779129974660464e-05 -1.1521653505042195e-05 -4.6187695261323825e-05 128 128 128
1.2611651072802488e-05 -1.1812642696895637e-05 -4.603201523423195e-05 128 128 128
1.2656997569138184e-05 -1.1748185897886287e-05 -4.616137812263332e-05 128 128 128
1.1800480024248827e-05 -1.3111737644067034e-05 -4.422267011250369e-05 128 128 128
1.2492382666096091e-05 -1.1967557838943321e-05 -4.690295099862851e-05 128 128 128
1.2558905837067869e-05 -1.1685858225973789e-05 -4.7028875997057185e-05 128 128 128
1.1681543583108578e-05 -1.3205275536165573e-05 -4.5142092858441174e-05 128 128 128
1.2464171049941797e-05 -1.1796548278653063e-05 -4.766444180859253e-05 128 128 128
1.1275940778432414e-05 -1.3709535778616555e-05 -4.379970778245479e-05 128 128 128
1.328343296336243e-05 -1.2335378414718434e-05 -5.229916132520884e-05 128 128 128
1.1182009075128008e-05 -1.380974026687909e-05 -4.474260640563443e-05 128 128 128
1.1103690667368937e-05 -1.3947115803603083e-05 -4.488531340030022e-05 128 128 128
1.1020250894944184e-05 -1.4007147001393605e-05 -4.4582528062164783e-05 128 128 128
1.2232662811584305e-05 -1.1742624337784946e-05 -4.95545391459018e-05 128 128 128
1.1939639080082998e-05 -1.2307487850193866e-05 -4.94495834573172e-05 128 128 128
1.2096146747353487e-05 -1.1569280104595236e-05 -5.136127947480418e-05 128 128 128
1.1989724043814931e-05 -1.1357223229424562e-05 -5.204589251661673e-05 128 128 128
1.2017887456750032e-05 -1.103361228160793e-05 -5.26309922861401e-05 128 128 128
1.1390306099201553e-05 -1.3018337085668463e-05 -5.156148108653724e-05 128 128 128
1.1578239536902402e-05 -1.2158424397057388e-05 -5.264655555947684e-05 128 128 128
1.1920058568648528e-05 -1.0848696547327563e-05 -5.351466461434029e-05 128 128 128
1.1361503311491106e-05 -1.2531807442428544e-05 -5.314364898367785e-05 128 128 128
1.0307053344149608e-05 -1.518476983619621e-05 -4.8706795496400446e-05 128 128 128
1.1098706636403222e-05 -1.3024551662965678e-05 -5.3481333452509716e-05 128 128 128
1.1718576388375368e-05 -1.0548789759923238e-05 -5.5102238547988236e-05 128 128 128
1.1567144611035474e-05 -1.0975566510751378e-05 -5.493754360941239e-05 128 128 128
1.1394011380616575e-05 -1.1262851330684498e-05 -5.514421354746446e-05 128 128 128
1.0965900401060935e-05 -1.2889524441561662e-05 -5.4728396207792684e-05 128 128 128
1.100737790693529e-05 -1.2639919987122994e-05 -5.5068601795937866e-05 128 128 128
1.1337766409269534e-05 -1.1370219908712897e-05 -5.5741951655363664e-05 128 128 128
1.1337766409269534e-05 -1.1370219908712897e-05 -5.5741951655363664e-05 128 128 128
9.923955985868815e-06 -1.583037737873383e-05 -4.97422443004325e-05 128 128 128
1.0759290489659179e-05 -1.3230368494987488e-05 -5.5316129873972386e-05 128 128 128
9.807405149331316e-06 -1.600701580173336e-05 -5.089966725790873e-05 128 128 128
1.1099432413175236e-05 -1.1316134077787865e-05 -5.689316094503738e-05 128 128 128
9.911889719660394e-06 -1.5517885913141072e-05 -5.514914300874807e-05 128 128 128
1.0770932021841872e-05 -1.1132940926472656e-05 -5.82457214477472e-05 128 128 128
1.007789160212269e-05 -1.371380676573608e-05 -5.830405279994011e-05 128 128 128
1.0686765563150402e-05 -1.0527214726607781e-05 -5.970896745566279e-05 128 128 128
9.992894774768502e-06 -1.3654626854986418e-05 -5.8884201280307025e-05 128 128 128
9.438430424779654e-06 -1.596823858562857e-05 -5.715067527489737e-05 128 128 128
1.0661363376129884e-05 -9.924639925884549e-06 -6.0086080338805914e-05 128 128 128
1.0419842510600574e-05 -1.0924664820777252e-05 -6.0180158470757306e-05 128 128 128
1.0074444617202971e-05 -1.2265652912901714e-05 -6.0277579905232415e-05 128 128 128
9.238430720870383e-06 -1.635334047023207e-05 -5.7881414250005037e-05 128 128 128
1.0463021681061946e-05 -1.01020586953382e-05 -6.059369115973823e-05 128 128 128
9.057027455128264e-06 -1.6906609744182788e-05 -5.75855010538362e-05 128 128 128
9.636895811127033e-06 -1.386397889291402e-05 -6.039184154360555e-05 128 128 128
9.636895811127033e-06 -1.386397889291402e-05 -6.039184154360555e-05 128 128 128
9.548112757329363e-06 -1.3950055290479213e-05 -6.0679332818835974e-05 128 128 128
9.518817023490556e-06 -1.3611414942715783e-05 -6.112081609899178e-05 128 128 128
9.541942745272536e-06 -1.3287476576806512e-05 -6.13850133959204e-05 128 128 128
9.580904588801786e-06 -1.3008354471821804e-05 -6.162444333313033e-05 128 128 128
8.781756150710862e-06 -1.7134909285232425e-05 -5.9176938520977274e-05 128 128 128
9.315744136983994e-06 -1.398121275997255e-05 -6.16151446592994e-05 128 128 128
8.781429642112926e-06 -1.662048998696264e-05 -6.023249443387613e-05 128 128 128
8.677413461555261e-06 -1.730523581500165e-05 -5.9536359913181514e-05 128 128 128
8.567002623749431e-06 -1.7346690583508462e-05 -6.025345282978378e-05 128 128 128
9.419856723980047e-06 -1.2139719729020726e-05 -6.291612953646109e-05 128 128 128
9.419856723980047e-06 -1.2139719729020726e-05 -6.291612953646109e-05 128 128 128
8.599755346949678e-06 -1.6478405086672865e-05 -6.195130117703229e-05 128 128 128
8.699979844095651e-06 -1.5677913324907422e-05 -6.268971628742293e-05 128 128 128
9.217790648108348e-06 -1.226510175911244e-05 -6.354346260195598e-05 128 128 128
9.032512025441974e-06 -1.3370245142141357e-05 -6.344306893879548e-05 128 128 128
8.724012332095299e-06 -1.49878278534743e-05 -6.33088857284747e-05 128 128 128
8.687750778335612e-06 -1.0926999493676703e-05 -5.9903046349063516e-05 128 128 128
8.586332114646211e-06 -1.534637704025954e-05 -6.355236837407574e-05 128 128 128
8.497934686602093e-06 -1.5557099686702713e-05 -6.368710455717519e-05 128 128 128
8.497934686602093e-06 -1.5557099686702713e-05 -6.368710455717519e-05 128 128 128
8.49952357384609e-06 -1.5083739526744466e-05 -6.408002809621394e-05 128 128 128
8.328114745381754e-06 -1.6000019968487322e-05 -6.398851837730035e-05 128 128 128
8.531765161023941e-06 -1.3699889677809551e-05 -6.508026854135096e-05 128 128 128
8.586091098550241e-06 -1.3018683603149839e-05 -6.535240390803665e-05 128 128 128
8.43164980324218e-06 -1.3919208868173882e-05 -6.530217797262594e-05 128 128 128
8.13964561530156e-06 -1.5530778910033405e-05 -6.522411422338337e-05 128 128 128
8.507994607498404e-06 -1.2692384188994765e-05 -6.581775232916698e-05 128 128 128
7.808857844793238e-06 -1.746559610182885e-05 -6.474178371718153e-05 128 128 128
8.241282557719387e-06 -1.3772973034065217e-05 -6.609155389014632e-05 128 128 128
7.997101420187391e-06 -1.54511089931475e-05 -6.594156729988754e-05 128 128 128
8.118890946207102e-06 -1.4208186257747002e-05 -6.625567766604945e-05 128 128 128
8.001418791536707e-06 -1.0632595149218105e-05 -6.274416227824986e-05 128 128 128
7.513154741900507e-06 -1.801540383894462e-05 -6.546363874804229e-05 128 128 128
7.806891517248005e-06 -1.535716546641197e-05 -6.66231062496081e-05 128 128 128
7.806891517248005e-06 -1.535716546641197e-05 -6.66231062496081e-05 128 128 128
7.602655387017876e-06 -1.611679545021616e-05 -6.696736818412319e-05 128 128 128
7.4146591941826046e-06 -1.6469113688799553e-05 -6.746188591932878e-05 128 128 128
7.72049679653719e-06 -1.0468412256159354e-05 -6.378570105880499e-05 128 128 128
7.235486918943934e-06 -1.6473661162308417e-05 -6.808187026763335e-05 128 128 128
6.9655511651944835e-06 -1.81627747224411e-05 -6.770461186533794e-05 128 128 128
7.047969120321795e-06 -1.6131814845721237e-05 -6.897105777170509e-05 128 128 128
6.477679562522098e-06 -1.881369280454237e-05 -6.930372910574079e-05 128 128 128
6.591059445781866e-06 -1.700280699878931e-05 -7.010011177044362e-05 128 128 128
6.4532669057371095e-06 -1.751060517563019e-05 -7.009821274550632e-05 128 128 128
6.17775549471844e-06 -1.707446062937379e-05 -7.1371192461811e-05 128 128 128
5.4335405366146006e-06 -1.987982432183344e-05 -7.263018051162362e-05 128 128 128
-2.052133459073957e-05 7.216639005491743e-06 -3.358709000167437e-05 128 128 128
-5.204168829209266e-08 2.4265600586659275e-06 -2.7784562917076983e-05 128 128 128
4.939554855809547e-06 -1.4502941212413134e-06 6.071406460250728e-06 128 128 128
-2.2271624402492307e-05 9.379823495692108e-06 -3.687480420921929e-05 128 128 128
4.285420072847046e-05 -5.3058269259054214e-05 -0.00016934025916270912 128 128 128
-6.146196938061621e-06 8.165229701262433e-06 -2.5036402803380042e-05 128 128 128
-5.168634743313305e-06 -4.801343493454624e-06 -6.643674714723602e-05 128 128 128
2.6509722374612466e-05 -5.3235933592077345e-05 -0.00018738169455900788 128 128 128
2.1927138732280582e-05 -4.63787218905054e-05 -0.00016755962860770524 128 128 128
-5.754185622208752e-06 2.8189065233164e-06 -1.4626745723944623e-05 128 128 128
9.477806770519237e-07 9.780652362678666e-06 -2.7945923648076132e-05 128 128 128
-7.539706984971417e-06 4.431406523508485e-06 -4.7288049245253205e-05 128 128 128
-8.422035534749739e-06 -5.916671852901345e-06 -6.955891876714304e-05 128 128 128
