ply
format ascii 1.0
element vertex 621
property float x
property float y
property float z
property uchar red
property uchar green
property uchar blue
end_header
-4.078635419311159e-14 -4.647177655441991e-15 1.525686451090899e-13 134 163 31
-4.009854311115037e-14 -2.6611820250687854e-14 1.4999403086767005e-13 134 163 31
-4.009854311115037e-14 -2.6611820250687854e-14 1.4999403086767005e-13 134 163 31
-4.029586113027915e-14 -3.0867391704724606e-14 1.523027851838693e-13 134 163 31
-4.073492235255431e-14 6.510920448790744e-16 1.5458344511127403e-13 134 163 31
-3.952853059522969e-14 -2.9804592360750323e-14 1.5210070345144516e-13 134 163 31
-3.9572674564308796e-14 -1.4588528071657857e-14 1.5217268092317104e-13 134 163 31
-3.9572674564308796e-14 -1.4588528071657857e-14 1.5217268092317104e-13 134 163 31
-3.8667975614005423e-14 -1.3466975981363174e-14 1.5211918909848604e-13 134 163 31
-3.8667975614005423e-14 -1.3466975981363174e-14 1.5211918909848604e-13 134 163 31
-3.8196700034680287e-14 -1.5853456581901328e-14 1.51201926955509e-13 134 163 31
-3.8196700034680287e-14 -1.5853456581901328e-14 1.51201926955509e-13 134 163 31
-3.6139138421186975e-14 -7.729362668570244e-14 1.4289982500255427e-13 134 163 31
-3.720873096939824e-14 -2.3100404510263683e-14 1.4793734000404651e-13 134 163 31
-3.803540802086412e-14 -3.254661758199731e-14 1.51215560797828e-13 134 163 31
-3.803540802086412e-14 -3.254661758199731e-14 1.51215560797828e-13 134 163 31
-3.8095520255064866e-14 -1.2437708977704794e-14 1.5242921670970827e-13 134 163 31
-3.8095520255064866e-14 -1.2437708977704794e-14 1.5242921670970827e-13 134 163 31
-3.671560194003394e-14 -2.0206392779159067e-14 1.48208661597711e-13 134 163 31
-3.767850560634084e-14 -1.3341898861206868e-14 1.5209758637019927e-13 134 163 31
-3.7740467760498386e-14 -1.161236769719673e-14 1.5243225247579123e-13 134 163 31
-3.5886268593245466e-14 -7.519310694925618e-14 1.4437737572321752e-13 134 163 31
-3.652602919017485e-14 -2.498911349385364e-14 1.4824574131201002e-13 134 163 31
-3.714484096825274e-14 -1.2324542834852778e-14 1.5231640547366115e-13 134 163 31
-3.715977246504694e-14 -1.2297177741425833e-14 1.5241132737386226e-13 134 163 31
-3.713825444005489e-14 -4.966031879370203e-16 1.5255783019241936e-13 134 163 31
-3.623727227032407e-14 -4.5824255441627784e-14 1.496687702159244e-13 134 163 31
-3.5139419314860615e-14 -7.338636534397203e-14 1.4525189319554432e-13 134 163 31
-3.460859393121171e-14 -7.535323683386871e-14 1.4387853430365694e-13 134 163 31
-3.578045723747446e-14 -3.9639349609784866e-14 1.501901223830912e-13 134 163 31
-3.5758993422591034e-14 -3.26737199579305e-14 1.5074877110499152e-13 134 163 31
-3.5881860633787954e-14 -1.2433006250781638e-14 1.5214882847537636e-13 134 163 31
-3.5881860633787954e-14 -1.2433006250781638e-14 1.5214882847537636e-13 134 163 31
-3.553231385337863e-14 -3.120725520448092e-14 1.509961589356984e-13 134 163 31
-3.553231385337863e-14 -3.120725520448092e-14 1.509961589356984e-13 134 163 31
-3.5517253607576446e-14 -2.913960034638813e-14 1.512232450807255e-13 134 163 31
-3.4753304428052426e-14 -4.156447931604086e-14 1.4913771443931384e-13 134 163 31
-3.4753304428052426e-14 -4.156447931604086e-14 1.4913771443931384e-13 134 163 31
-3.388294758156253e-14 -7.139949032399298e-14 1.4543071879136865e-13 134 163 31
-3.473163054899808e-14 -3.4168827977524435e-14 1.5051245568897115e-13 134 163 31
-3.354213879303708e-14 -6.976140314290252e-14 1.455563507181054e-13 134 163 31
-3.270565987630557e-14 -7.716005975431581e-14 1.4290666902876809e-13 134 163 31
-3.146048417439207e-14 -7.479941281163596e-14 1.4300778443387951e-13 134 163 31
-3.218653371172414e-14 -4.8469092102506814e-14 1.4865296764799557e-13 134 163 31
-3.222474167390889e-14 -5.710975312447908e-14 1.486738114347616e-13 134 163 31
-3.222474167390889e-14 -5.710975312447908e-14 1.486738114347616e-13 134 163 31
-3.156903652878039e-14 -2.4194411936146604e-14 1.469172141799549e-13 134 163 31
-2.9896874906287785e-14 -7.693680897447389e-14 1.4133721862145954e-13 134 163 31
-3.0257470384461096e-14 -6.988916281640278e-14 1.4476196933885244e-13 134 163 31
-3.0690236457872264e-14 -5.371624437031271e-14 1.4758502850809735e-13 134 163 31
-3.06374425883358e-14 -2.0951861393839893e-14 1.472412279992022e-13 134 163 31
-2.936173981900325e-14 -6.810768989800112e-14 1.4468148088007254e-13 134 163 31
-3.006988985609395e-14 -3.361288637292355e-14 1.4901944153482283e-13 134 163 31
-3.006988985609395e-14 -3.361288637292355e-14 1.4901944153482283e-13 134 163 31
-2.8714403359393625e-14 -7.49667594169591e-14 1.422375130004372e-13 134 163 31
-2.8285897861707147e-14 -7.783059814041662e-14 1.4098600488021001e-13 134 163 31
-2.8417647060388976e-14 -7.584781598363871e-14 1.4153450275927043e-13 134 163 31
-2.9613810047842554e-14 -2.825143547921516e-14 1.49417777412994e-13 134 163 31
-2.924163393521438e-14 -4.1781655175585075e-14 1.484202029940901e-13 134 163 31
-2.92037139642317e-14 -3.835271164510327e-15 1.493775806174491e-13 134 163 31
-2.8646867728443146e-14 -4.0371626533345153e-14 1.485585607438264e-13 134 163 31
-2.890302743235179e-14 -2.976092950638526e-14 1.4972966172043661e-13 134 163 31
-2.867369834408037e-14 -3.310106502047924e-14 1.4920805205525384e-13 134 163 31
-2.867369834408037e-14 -3.310106502047924e-14 1.4920805205525384e-13 134 163 31
-2.8616875985846765e-14 -2.729845903905008e-14 1.489000302180507e-13 134 163 31
-2.8284796718875717e-14 -3.9604638199606385e-14 1.4847228535595086e-13 134 163 31
-2.6768595884829258e-14 -7.402565837871453e-14 1.4238350082296236e-13 134 163 31
-2.7590715899038915e-14 -4.6461332638180267e-14 1.4784145587441733e-13 134 163 31
-2.706982451779541e-14 -4.4433932173872787e-14 1.474235772520871e-13 134 163 31
-2.706982451779541e-14 -4.4433932173872787e-14 1.474235772520871e-13 134 163 31
-2.5713326663756066e-14 -7.77282155740161e-14 1.4068999058206716e-13 134 163 31
-2.7647583997051674e-14 9.154790327439602e-16 1.5286888779570545e-13 134 163 31
-2.9233065349919957e-14 4.2734286026307675e-14 1.6210680530131388e-13 134 163 31
-2.6030899644472437e-14 -6.148787669345637e-14 1.455064096555353e-13 134 163 31
-2.8107851536194293e-14 1.715461099723297e-14 1.5919688798552573e-13 134 163 31
-2.5608033692148778e-14 -5.131453665848176e-14 1.4653981695623985e-13 134 163 31
-2.5608033692148778e-14 -5.131453665848176e-14 1.4653981695623985e-13 134 163 31
-2.5724177155810393e-14 -4.043095949723442e-14 1.4783107463861578e-13 134 163 31
-2.8043609169342738e-14 4.1931688427466335e-14 1.6174179508741948e-13 134 163 31
-2.4683051690890453e-14 -7.300165653185628e-14 1.422455903066222e-13 134 163 31
-2.648548359253898e-14 3.6021753207224685e-15 1.5440544621960622e-13 134 163 31
-2.4858238433173377e-14 -3.233902335915244e-14 1.4832736818307102e-13 134 163 31
-2.3579017088977937e-14 -6.478805258123069e-14 1.4413185814125817e-13 134 163 31
-2.327380740115969e-14 -3.370922197111362e-15 1.4863908986018776e-13 134 163 31
-2.198154852584011e-14 -7.353244803418729e-14 1.4107713207280742e-13 134 163 31
-2.198154852584011e-14 -7.353244803418729e-14 1.4107713207280742e-13 134 163 31
-2.2098315405750905e-14 -4.064642435022518e-14 1.4723247306665938e-13 134 163 31
-1.190160097081416 0.8873699323850821 2.0198462720749784 92 204 103
-2.3181148772993647e-14 2.4880210467825153e-14 1.5836759529631872e-13 134 163 31
-2.109103060113967e-14 -4.133024421293895e-15 1.4776095386311028e-13 134 163 31
-2.223465891113864e-14 2.605984445434601e-14 1.5826149256121386e-13 134 163 31
-2.1797137594761588e-14 2.20091008135484e-14 1.5783206718574666e-13 134 163 31
-2.0709633687847687e-14 1.4654220558915111e-15 1.501264797155663e-13 134 163 31
-0.8736747264323195 -1.3912472460364707 1.3783153347644088 110 192 71
-1.961966999725496e-14 -6.501824225497652e-14 1.4314348588829323e-13 134 163 31
-2.0117864283643837e-14 -1.9073826719451237e-14 1.4675728080698613e-13 134 163 31
-2.0117864283643837e-14 -1.9073826719451237e-14 1.4675728080698613e-13 134 163 31
-1.9038146303581097e-14 -7.465600674553402e-14 1.391023120257337e-13 134 163 31
-1.9038146303581097e-14 -7.465600674553402e-14 1.391023120257337e-13 134 163 31
-1.9027914145578265e-14 -2.9541473434147036e-14 1.4717810032770923e-13 134 163 31
-1.9027914145578265e-14 -2.9541473434147036e-14 1.4717810032770923e-13 134 163 31
-2.023419070642206e-14 2.932407395790475e-14 1.5775587487807524e-13 134 163 31
-1.9978366427560526e-14 3.374688359704739e-14 1.5823082319225967e-13 134 163 31
-1.8384592622138624e-14 -4.437244774629749e-15 1.4742611157466529e-13 134 163 31
-1.784339277895175e-14 -2.8553345126670904e-14 1.468027630881219e-13 134 163 31
-1.784339277895175e-14 -2.8553345126670904e-14 1.468027630881219e-13 134 163 31
-1.7896779571551294e-14 1.0829535929816924e-16 1.4797447392845414e-13 134 163 31
-1.8706946256809298e-14 3.5054058722568116e-14 1.5822431797922476e-13 134 163 31
-1.731117826126935e-14 -2.694247142010983e-14 1.4634491806320843e-13 134 163 31
-1.7073351738471076e-14 -3.037974128446315e-14 1.4694576935467274e-13 134 163 31
-1.7073351738471076e-14 -3.037974128446315e-14 1.4694576935467274e-13 134 163 31
-1.6830810630288386e-14 -3.233028536726856e-14 1.4655057766280177e-13 134 163 31
-1.8016429751614542e-14 2.1772814196648234e-14 1.5665311929591308e-13 134 163 31
-1.5611604958537702e-14 -7.425517720236613e-14 1.381578228557001e-13 134 163 31
-1.5611604958537702e-14 -7.425517720236613e-14 1.381578228557001e-13 134 163 31
-1.589731764197605e-14 -2.958621032628922e-14 1.4642956714782523e-13 134 163 31
-1.6769361778096875e-14 2.2257850673234464e-14 1.5608114843981835e-13 134 163 31
-1.461578898003229e-14 -7.466473457302253e-14 1.3765885946339512e-13 134 163 31
-1.6205690150819345e-14 2.5413343169222377e-14 1.5618561131913733e-13 134 163 31
-1.4641537087562925e-14 -2.815990509893486e-14 1.4540944132373362e-13 134 163 31
-1.3063885707259061e-14 -7.508379226521533e-14 1.3729112519154235e-13 134 163 31
-0.046203445049649614 0.5510017165512469 -0.5234818093832962 138 152 30
-1.3385694699744651e-14 -2.6750691302390196e-14 1.451098356058944e-13 134 163 31
-1.287853626367498e-14 -1.6913562361103342e-14 1.4433667748416784e-13 134 163 31
-1.222752706920606e-14 -7.531966722410313e-14 1.3740888310000143e-13 134 163 31
-1.2722401833474648e-14 -1.2543135780517748e-14 1.4446855712592355e-13 134 163 31
-1.2329332806169501e-14 -2.8638177170404316e-14 1.450515055290147e-13 134 163 31
-1.1496441921002559e-14 -2.1284974041006592e-14 1.4538123851472184e-13 134 163 31
-1.1250459317955173e-14 -2.6740279573402546e-14 1.4482672331360413e-13 134 163 31
-1.1180560465081854e-14 -1.3203506383119724e-14 1.439396290960765e-13 134 163 31
-1.113662910127251e-14 -2.4766199833124725e-14 1.4490020511584434e-13 134 163 31
-1.0669885148215184e-14 -1.8855315512465677e-15 1.4487726068736911e-13 134 163 31
-1.0669885148215184e-14 -1.8855315512465677e-15 1.4487726068736911e-13 134 163 31
-1.0010721567563045e-14 -1.640183587634913e-14 1.4361900340861822e-13 134 163 31
-9.981660714175698e-15 -1.128260252423758e-14 1.4409431764103586e-13 134 163 31
-9.89352015975031e-15 -1.456416571002893e-14 1.432707170132344e-13 134 163 31
-9.494292355885676e-15 -6.914632847418792e-14 1.3909004698865746e-13 134 163 31
-9.494292355885676e-15 -6.914632847418792e-14 1.3909004698865746e-13 134 163 31
-9.810782828495457e-15 -2.51336240909188e-14 1.446771440713826e-13 134 163 31
-9.810782828495457e-15 -2.51336240909188e-14 1.446771440713826e-13 134 163 31
-9.7071771465191e-15 -1.5531265577556526e-14 1.4327888918710951e-13 134 163 31
-9.763194823452816e-15 -8.22952901706692e-15 1.460645975915123e-13 134 163 31
-9.763194823452816e-15 -8.22952901706692e-15 1.460645975915123e-13 134 163 31
-9.468065674739842e-15 -2.0880632699239385e-14 1.4401281274271927e-13 134 163 31
-9.478763700863663e-15 -2.814828380689853e-14 1.4445687484751502e-13 134 163 31
-9.478763700863663e-15 -2.814828380689853e-14 1.4445687484751502e-13 134 163 31
-8.98864417956096e-15 -2.2812613207972773e-14 1.4468926003066013e-13 134 163 31
-8.532974335256037e-15 -6.691904517498737e-14 1.3927483569643045e-13 134 163 31
-8.613555967660128e-15 -3.76742907703953e-14 1.44097543142499e-13 134 163 31
-8.613555967660128e-15 -3.76742907703953e-14 1.44097543142499e-13 134 163 31
-8.314916714413732e-15 -8.606573705669321e-14 1.3930917780024393e-13 134 163 31
-8.573316820467865e-15 -1.2851247403213289e-14 1.435203816685035e-13 134 163 31
-8.011672143033114e-15 -7.525674961678108e-14 1.3599965066873193e-13 134 163 31
-8.222062421636873e-15 -3.022749897065545e-14 1.4408888307764628e-13 134 163 31
-8.222062421636873e-15 -3.022749897065545e-14 1.4408888307764628e-13 134 163 31
-8.281506346842233e-15 -8.175607746677659e-15 1.4552768712317032e-13 134 163 31
-7.298055355300839e-15 -4.0500145148366154e-14 1.4387648787205637e-13 134 163 31
-7.298055355300839e-15 -4.0500145148366154e-14 1.4387648787205637e-13 134 163 31
-7.176114798148215e-15 -5.77958091541736e-14 1.4228157226622157e-13 134 163 31
-7.176114798148215e-15 -5.77958091541736e-14 1.4228157226622157e-13 134 163 31
-7.010196290374148e-15 -1.6133289162619836e-14 1.4295567496696443e-13 134 163 31
-7.010196290374148e-15 -1.6133289162619836e-14 1.4295567496696443e-13 134 163 31
-6.960715590210867e-15 -2.5631650664784122e-14 1.4459374181926415e-13 134 163 31
-6.395032259683608e-15 -3.439185514066828e-14 1.4362683676931443e-13 134 163 31
-6.364066852714359e-15 -1.4510958488414202e-14 1.4254699851057318e-13 134 163 31
-6.019267268457919e-15 -6.907571303144122e-14 1.3814025878050584e-13 134 163 31
-6.207683394827534e-15 -2.6540461113013468e-14 1.442109777947953e-13 134 163 31
-5.833999563553249e-15 -3.7281995931203946e-14 1.4354489819012883e-13 134 163 31
-5.609380401985038e-15 -2.755698027081567e-14 1.441279956710187e-13 134 163 31
-5.609380401985038e-15 -2.755698027081567e-14 1.441279956710187e-13 134 163 31
-4.634285813984781e-15 -7.174121051996968e-14 1.3774461985523873e-13 134 163 31
-4.230277779682318e-15 -4.743648778903625e-14 1.4236207427752862e-13 134 163 31
-4.054512090379946e-15 -7.309991235373778e-14 1.3768437887203e-13 134 163 31
-3.956147001248252e-15 -2.619005374712973e-14 1.4286731248990686e-13 134 163 31
-3.385771955226151e-15 -6.9950488001784e-14 1.3730715783116798e-13 134 163 31
-3.385771955226151e-15 -6.9950488001784e-14 1.3730715783116798e-13 134 163 31
-2.9613775319491716e-15 -4.235642462853753e-15 1.4302042894171613e-13 134 163 31
-2.7308456568926522e-15 -4.299923454407703e-14 1.4198581546609468e-13 134 163 31
-2.7114295441592155e-15 -2.5099713973908422e-14 1.4228475711010324e-13 134 163 31
-2.319283147491865e-15 -7.252405869861284e-14 1.3738181870327076e-13 134 163 31
-2.2347850464979075e-15 -2.0894195814307294e-15 1.424005499021247e-13 134 163 31
-2.103793518787398e-15 -4.468504017328401e-14 1.4169373140082708e-13 134 163 31
-1.7280157161883819e-15 -6.39432693534843e-14 1.3835662487655248e-13 134 163 31
-1.5115496702539674e-15 -4.1049422297738045e-14 1.4233578237484584e-13 134 163 31
-1.1113234263027583e-15 -2.9444986217059405e-14 1.4234532335396372e-13 134 163 31
-1.1113234263027583e-15 -2.9444986217059405e-14 1.4234532335396372e-13 134 163 31
-9.547974551225575e-16 -5.252887697298342e-14 1.4065432033059239e-13 134 163 31
-9.547974551225575e-16 -5.252887697298342e-14 1.4065432033059239e-13 134 163 31
-6.427182242229592e-16 -6.677338261311394e-14 1.3698463478990786e-13 134 163 31
-1.2227193232345723e-16 -6.184716774089091e-14 1.3883760406532136e-13 134 163 31
-1.2227193232345723e-16 -6.184716774089091e-14 1.3883760406532136e-13 134 163 31
3.7656318742957816e-17 -4.802468779640037e-14 1.412463760319324e-13 134 163 31
3.7656318742957816e-17 -4.802468779640037e-14 1.412463760319324e-13 134 163 31
3.7838035537682267e-19 -2.4611865347937308e-14 1.4104081130002916e-13 134 163 31
1.1575705781898958e-16 -4.689481445443186e-15 1.4210987529968133e-13 134 163 31
7.008134082784939e-16 -3.811763141487823e-16 1.4146138687526344e-13 134 163 31
8.14116664588847e-16 -1.968702351612178e-15 1.4135994620950026e-13 134 163 31
1.1873462215056078e-15 -1.906682006291155e-14 1.415415771784459e-13 134 163 31
1.473434246418708e-15 -3.980444310746831e-14 1.4139104925932344e-13 134 163 31
-5.112964235945316 -6.749186835073455 -3.2634616811412793 140 90 54
1.3973923929745452e-15 -6.062747417816261e-14 1.3898975828770255e-13 134 163 31
1.7529450604963784e-15 -2.6009481569368165e-14 1.4069046492051762e-13 134 163 31
1.8085743728237782e-15 -2.8058710072726388e-14 1.406856266683229e-13 134 163 31
1.8085743728237782e-15 -2.8058710072726388e-14 1.406856266683229e-13 134 163 31
2.1292381767646805e-15 -3.127592924771251e-14 1.4139268911510933e-13 134 163 31
2.1292381767646805e-15 -3.127592924771251e-14 1.4139268911510933e-13 134 163 31
2.377333068224281e-15 -1.5638704930652156e-14 1.40517344938626e-13 134 163 31
3.051409087429305e-15 -2.366284963383359e-14 1.4033607988791358e-13 134 163 31
3.4074687041700698e-15 -2.861660578233659e-15 1.4063340878119057e-13 134 163 31
3.4074687041700698e-15 -2.861660578233659e-15 1.4063340878119057e-13 134 163 31
3.4085630707379223e-15 1.0204106389201254e-15 1.408280637287332e-13 134 163 31
3.981182330553773e-15 -1.2386024721329231e-14 1.4021189808158252e-13 134 163 31
4.265339437984489e-15 -2.8175725980323675e-14 1.4000111562672418e-13 134 163 31
4.668793512739447e-15 3.59992594002774e-14 1.5197166984039223e-13 134 163 31
4.489527883299021e-15 -4.852347881750059e-16 1.4034791124412083e-13 134 163 31
4.613587293369201e-15 -4.2435327441640164e-14 1.3989182804773764e-13 134 163 31
4.613587293369201e-15 -4.2435327441640164e-14 1.3989182804773764e-13 134 163 31
4.806459660074321e-15 2.3940971207998644e-15 1.4184512668168753e-13 134 163 31
4.780494288592714e-15 -3.914618669910268e-14 1.4036195166225451e-13 134 163 31
5.0702930589686165e-15 -2.571055856008444e-14 1.3977543894452132e-13 134 163 31
5.147713564413554e-15 -7.636695908887908e-14 1.3394670030260347e-13 134 163 31
6.354541120189537e-15 3.178130298536232e-14 1.5015010177039934e-13 134 163 31
6.291091576176612e-15 -1.608227363875613e-15 1.3976672466955997e-13 134 163 31
6.863499501272123e-15 3.566285518307767e-14 1.5052694334050098e-13 134 163 31
6.477850482584924e-15 -7.808794030231964e-14 1.3210560304097868e-13 134 163 31
7.310982772141834e-15 -2.457498722747975e-14 1.394384146992042e-13 134 163 31
7.310982772141834e-15 -2.457498722747975e-14 1.394384146992042e-13 134 163 31
7.0414691703032505e-15 -7.68205621727927e-14 1.3246301028713853e-13 134 163 31
7.656213072651952e-15 -3.870765741351839e-14 1.392851220645419e-13 134 163 31
7.656213072651952e-15 -3.870765741351839e-14 1.392851220645419e-13 134 163 31
7.722754286922356e-15 -7.118924997022089e-14 1.3392150615462034e-13 134 163 31
8.32892579232837e-15 -2.4037627831675727e-14 1.3916268853421399e-13 134 163 31
8.1912355045545e-15 -2.7068924968805426e-14 1.3858418536003003e-13 134 163 31
7.860751200623132e-15 -7.819285719129834e-14 1.320646879614945e-13 134 163 31
8.36152131420461e-15 -2.074997786712541e-14 1.3979453445528423e-13 134 163 31
8.36152131420461e-15 -2.074997786712541e-14 1.3979453445528423e-13 134 163 31
8.934866904772732e-15 1.669749950285182e-14 1.484509265731529e-13 134 163 31
8.597363238807467e-15 -3.400779007359245e-14 1.392691165299706e-13 134 163 31
8.533993315891584e-15 -5.207554155148113e-14 1.3767203251979082e-13 134 163 31
8.533993315891584e-15 -5.207554155148113e-14 1.3767203251979082e-13 134 163 31
8.708659979944893e-15 -3.64980025640161e-14 1.391239960691834e-13 134 163 31
9.155668912364141e-15 -1.3138229577281334e-15 1.3866288488522532e-13 134 163 31
8.71488651914016e-15 -8.190925829308984e-14 1.3059587862084693e-13 134 163 31
9.35220173195082e-15 -2.551918332411359e-14 1.38731718170651e-13 134 163 31
1.1024388765431842e-14 1.857214265731967e-14 1.4780304801245703e-13 134 163 31
1.1024388765431842e-14 1.857214265731967e-14 1.4780304801245703e-13 134 163 31
1.1063946898134513e-14 1.3336961506157322e-14 1.4758051551655438e-13 134 163 31
1.0487540977527961e-14 -2.301096968949489e-14 1.3904411747412554e-13 134 163 31
1.1165238486098971e-14 1.673861617617744e-14 1.4794454994849354e-13 134 163 31
1.1165238486098971e-14 1.673861617617744e-14 1.4794454994849354e-13 134 163 31
1.0783598474351126e-14 -2.5384008724193066e-14 1.3830793064648073e-13 134 163 31
1.0919598931395224e-14 -2.4226255292765682e-14 1.3874836067399865e-13 134 163 31
1.1527107054792006e-14 -2.888425040597706e-14 1.377182195323387e-13 134 163 31
1.154651342664655e-14 -4.001316896633071e-14 1.3806744105209628e-13 134 163 31
1.2377681446798777e-14 1.8213795204588372e-14 1.4785854561116113e-13 134 163 31
1.2377681446798777e-14 1.8213795204588372e-14 1.4785854561116113e-13 134 163 31
1.269175872254183e-14 3.654392869041623e-14 1.4875406950057984e-13 134 163 31
1.2088408683883119e-14 -2.277041572060646e-14 1.386840268275888e-13 134 163 31
1.2100539889753695e-14 -2.655915513015937e-14 1.3781560799248221e-13 134 163 31
1.3765531378347792e-14 1.758938792686092e-14 1.4691092580735449e-13 134 163 31
1.2918421351095291e-14 -2.951287760184773e-14 1.3705142164373296e-13 134 163 31
1.3127679146648571e-14 -1.225365634156296e-14 1.376501993985424e-13 134 163 31
1.3561219408173529e-14 -2.5295217648464187e-14 1.3780292282706413e-13 134 163 31
1.3561219408173529e-14 -2.5295217648464187e-14 1.3780292282706413e-13 134 163 31
1.3596538988008139e-14 -2.735639101044459e-14 1.3727261243944716e-13 134 163 31
1.4155073360460572e-14 -2.194144151578762e-14 1.3834856112289462e-13 134 163 31
1.4155073360460572e-14 -2.194144151578762e-14 1.3834856112289462e-13 134 163 31
1.436298691472656e-14 -1.724951595677513e-14 1.3743143450518913e-13 134 163 31
1.4318124661708183e-14 -3.0306882898472123e-14 1.3678403028294372e-13 134 163 31
1.4318124661708183e-14 -3.0306882898472123e-14 1.3678403028294372e-13 134 163 31
1.4583042686291438e-14 -2.337200393073488e-14 1.380578729679241e-13 134 163 31
1.473742799345569e-14 -1.515596560741888e-14 1.373959404365674e-13 134 163 31
1.4537187107210399 -4.098026419693575 2.2088202616925865 86 206 112
1.519390082499461e-14 -1.0098836711000016e-14 1.3712555396727666e-13 134 163 31
1.5762717330393763e-14 -1.938061697074906e-14 1.3757682601651944e-13 134 163 31
1.5762717330393763e-14 -1.938061697074906e-14 1.3757682601651944e-13 134 163 31
1.5807205194849454e-14 -2.52499267967745e-14 1.3753931262135144e-13 134 163 31
1.603990378018505e-14 -2.706666508490215e-14 1.3707624987348288e-13 134 163 31
1.6223899665119418e-14 -2.2931265583224156e-14 1.3740918125559887e-13 134 163 31
1.6738694103208586e-14 -2.898442052231935e-14 1.3632915326147743e-13 134 163 31
1.7129144104640823e-14 -6.145434096500868e-15 1.3709832694022012e-13 134 163 31
1.8068708625119077e-14 1.02762723257579e-14 1.443481700271962e-13 134 163 31
1.7342606571744273e-14 -2.3686685140969325e-14 1.3728785903249774e-13 134 163 31
1.7342606571744273e-14 -2.3686685140969325e-14 1.3728785903249774e-13 134 163 31
1.7308286490787424e-14 -2.6580524077352702e-14 1.3680444038884076e-13 134 163 31
1.7308286490787424e-14 -2.6580524077352702e-14 1.3680444038884076e-13 134 163 31
1.7543034895855375e-14 -2.5174168169972075e-14 1.3698975764517285e-13 134 163 31
1.6766014303889326e-14 -7.888865748801807e-14 1.2875212506389955e-13 134 163 31
1.8155378730348032e-14 -2.1417178943414043e-14 1.3707150648897826e-13 134 163 31
1.8149083581484038e-14 -4.258043773803198e-14 1.3583212788055576e-13 134 163 31
1.8149083581484038e-14 -4.258043773803198e-14 1.3583212788055576e-13 134 163 31
1.95128252612883e-14 1.0004280729032124e-14 1.4394686614557783e-13 134 163 31
1.8449382172274105e-14 -2.869291921571947e-14 1.3596299108277476e-13 134 163 31
1.8605007535673138e-14 -2.3563490975054766e-14 1.3649471093321597e-13 134 163 31
1.845984472323859e-14 -3.03473947902734e-14 1.357110360504163e-13 134 163 31
1.753331603981858e-14 -7.984655688367259e-14 1.285766333897556e-13 134 163 31
1.7779556987914877e-14 -7.829639849877071e-14 1.284553653767631e-13 134 163 31
1.920967725166367e-14 -2.3770654905162433e-14 1.3626631019305474e-13 134 163 31
1.9407401846607136e-14 -2.2193930178902865e-14 1.3674796700818143e-13 134 163 31
1.9596710322186683e-14 -2.52655054267404e-14 1.365582180754693e-13 134 163 31
2.0965850989996745e-14 2.122690993247231e-14 1.447445814465112e-13 134 163 31
2.014562494145715e-14 -9.534459505277423e-15 1.3544342784919255e-13 134 163 31
2.014562494145715e-14 -9.534459505277423e-15 1.3544342784919255e-13 134 163 31
2.006668147077305e-14 -3.270916998083899e-14 1.3480191897626004e-13 134 163 31
2.198917521049719e-14 1.8726890494585348e-14 1.4394754377193564e-13 134 163 31
2.0850419034010824e-14 -2.951395502775664e-14 1.3533613249169796e-13 134 163 31
2.0879241871139993e-14 -4.3997493365602325e-14 1.3493157600356215e-13 134 163 31
2.0879241871139993e-14 -4.3997493365602325e-14 1.3493157600356215e-13 134 163 31
1.980840926669395e-14 -7.943273046696203e-14 1.276161115800964e-13 134 163 31
2.248594309340289e-14 2.0372509492642792e-14 1.438547631710252e-13 134 163 31
-0.873674915118496 -1.3912473351818884 1.3783151147927775 110 192 71
2.1214895617148455e-14 -1.22966788390199e-14 1.3512262597888125e-13 134 163 31
2.3038803192141667e-14 -2.780382049472215e-15 1.341652890131037e-13 134 163 31
2.5099564896109705e-14 1.1872875221223631e-14 1.4296830592227389e-13 134 163 31
2.437918878545834e-14 -3.52399926188858e-14 1.336400472706431e-13 134 163 31
2.435553623743921e-14 -5.2807855744491095e-14 1.3304534882650765e-13 134 163 31
2.4615348347416417e-14 -3.934312524747109e-14 1.3388419604735968e-13 134 163 31
2.4615348347416417e-14 -3.934312524747109e-14 1.3388419604735968e-13 134 163 31
2.5506191532768605e-14 -2.444087819500687e-14 1.350957377650036e-13 134 163 31
2.746210580445961e-14 2.0330516987249712e-14 1.427247127991707e-13 134 163 31
-0.8736750649379219 -1.3912477179042342 1.378315023697945 110 192 71
2.7294332294531057e-14 -1.376708060160832e-14 1.3352560973133726e-13 134 163 31
2.913544649681479e-14 2.937550579846203e-14 1.433255369855807e-13 134 163 31
2.913544649681479e-14 2.937550579846203e-14 1.433255369855807e-13 134 163 31
2.9310324919104916e-14 1.9597613259308456e-14 1.4205267008255557e-13 134 163 31
2.9615937794606056e-14 2.5271217816936684e-14 1.426910889792965e-13 134 163 31
2.9677791528546354e-14 2.6321621680760847e-14 1.4272185321594077e-13 134 163 31
2.8158912376320677e-14 -9.766686293261398e-15 1.329172774448828e-13 134 163 31
3.030347443789237e-14 3.1145431963726725e-14 1.4266802257807687e-13 134 163 31
2.724559232468015e-14 -8.055810521694767e-14 1.2679058649343877e-13 134 163 31
2.8693305462743415e-14 -3.34895651520669e-14 1.329654973365041e-13 134 163 31
2.8693305462743415e-14 -3.34895651520669e-14 1.329654973365041e-13 134 163 31
2.8794349717087275e-14 -2.7912469834382933e-14 1.3264270324470084e-13 134 163 31
2.907660142390314e-14 -1.4882795787863473e-14 1.3333182214553263e-13 134 163 31
2.907660142390314e-14 -1.4882795787863473e-14 1.3333182214553263e-13 134 163 31
2.928983010991315e-14 -2.040912842101849e-14 1.3335762615723779e-13 134 163 31
2.9764978323873134e-14 -2.4750023197898062e-14 1.3314067730252344e-13 134 163 31
2.970561825492955e-14 -2.34348690220142e-14 1.3319999671388555e-13 134 163 31
2.998425821325833e-14 -3.1691334533836754e-14 1.321211477896267e-13 134 163 31
3.014210110891327e-14 -2.613892683843346e-14 1.3229040530127884e-13 134 163 31
3.0301563531563366e-14 -2.904586090418139e-14 1.3258627052162297e-13 134 163 31
3.281563524604528e-14 2.819147909907671e-14 1.419687799394595e-13 134 163 31
3.057966477693769e-14 -4.076044853745277e-14 1.318522927559046e-13 134 163 31
3.0796271430341346e-14 -1.8176037863931564e-14 1.326142429376731e-13 134 163 31
3.081928362145235e-14 -7.549414923497394e-15 1.322504388986956e-13 134 163 31
3.083775910409786e-14 -1.5996135152580697e-16 1.3184120678869093e-13 134 163 31
3.1429364183909944e-14 -2.7915581833431145e-14 1.3175981031059159e-13 134 163 31
3.1429364183909944e-14 -2.7915581833431145e-14 1.3175981031059159e-13 134 163 31
3.157900441250368e-14 -2.594868493254604e-14 1.3196515820206034e-13 134 163 31
3.121150392174435e-14 -6.029572864217278e-14 1.3010228202929575e-13 134 163 31
3.121150392174435e-14 -6.029572864217278e-14 1.3010228202929575e-13 134 163 31
-0.8736750241881434 -1.3912478677936873 1.378314788825049 110 192 71
-0.8736749591271915 -1.3912475105330377 1.3783151231206812 110 192 71
-0.8736749562550116 -1.3912474626201363 1.3783155780461265 110 192 71
3.252297519837355e-14 -1.3824695782680557e-14 1.3220987618491747e-13 134 163 31
3.2726459617358344e-14 -1.6317969450175586e-14 1.322007959917229e-13 134 163 31
3.2717938465908966e-14 -2.916831137516826e-14 1.3093116814268807e-13 134 163 31
3.546831204388409e-14 2.9480978341054134e-14 1.4111265324648348e-13 134 163 31
3.315265610323061e-14 -2.8257574774016858e-14 1.3110649718650613e-13 134 163 31
3.551362491843041e-14 2.860766026738064e-14 1.4099154786381685e-13 134 163 31
3.3168068714738846e-14 -3.2103500765970697e-14 1.3106151634887514e-13 134 163 31
3.321577022219642e-14 -3.4891513099990015e-14 1.3083749307498532e-13 134 163 31
3.355607079095352e-14 -1.3129921242859954e-14 1.3194557480031982e-13 134 163 31
3.369602096263066e-14 -2.360294576973787e-14 1.3117736335100522e-13 134 163 31
3.40224572961071e-14 -3.391073365036426e-14 1.307567335656623e-13 134 163 31
3.4433969618805765e-14 -1.1320461508848058e-14 1.3111457449269115e-13 134 163 31
3.464721524547472e-14 -1.4661289895892896e-14 1.3143873738973716e-13 134 163 31
3.4282313451797566e-14 -5.001908108081925e-14 1.2975227446296311e-13 134 163 31
3.4282313451797566e-14 -5.001908108081925e-14 1.2975227446296311e-13 134 163 31
3.4826427088322995e-14 -1.819141151192423e-14 1.31488393849237e-13 134 163 31
3.4826427088322995e-14 -1.819141151192423e-14 1.31488393849237e-13 134 163 31
3.4554729412029916e-14 -3.537040519957686e-14 1.3065111872153506e-13 134 163 31
3.4554729412029916e-14 -3.537040519957686e-14 1.3065111872153506e-13 134 163 31
3.4787124759570395e-14 -1.2721621716130227e-14 1.314152508601757e-13 134 163 31
3.5027509321869377e-14 -1.667518357282346e-14 1.3154642577051928e-13 134 163 31
3.5027509321869377e-14 -1.667518357282346e-14 1.3154642577051928e-13 134 163 31
3.5118423062164075e-14 -4.1129880263331836e-14 1.3083255995510051e-13 134 163 31
3.7437202860327035e-14 1.0231419390101942e-14 1.3950688206639666e-13 134 163 31
3.6106144793825526e-14 4.999366861009396e-16 1.300815060051655e-13 134 163 31
3.88763084495803e-14 1.0272076124537202e-14 1.3905422765938397e-13 134 163 31
3.716820891320159e-14 -3.694289476110016e-14 1.2966782866625365e-13 134 163 31
3.715004852681246e-14 -4.0371799328066393e-14 1.293683855787403e-13 134 163 31
3.780064775733491e-14 -9.979759125209112e-15 1.3020452229416113e-13 134 163 31
3.793226651294286e-14 -2.0491458329425713e-14 1.2989487415369927e-13 134 163 31
3.825554510759194e-14 -2.865556506274555e-14 1.294758977766694e-13 134 163 31
3.8090387235404505e-14 -3.697818554181456e-14 1.2907006735098092e-13 134 163 31
3.8090387235404505e-14 -3.697818554181456e-14 1.2907006735098092e-13 134 163 31
3.8706413969151823e-14 -1.0817938037065763e-14 1.299771108884823e-13 134 163 31
3.8706413969151823e-14 -1.0817938037065763e-14 1.299771108884823e-13 134 163 31
3.9132993313916245e-14 -3.08208116688892e-14 1.29131555166688e-13 134 163 31
3.9132993313916245e-14 -3.08208116688892e-14 1.29131555166688e-13 134 163 31
3.949670587333545e-14 -1.1302161362022629e-14 1.3002904417254435e-13 134 163 31
4.005436864888516e-14 -7.851556657980686e-15 1.294139220699847e-13 134 163 31
3.9826991124524216e-14 -3.670612533542006e-14 1.2866701519335944e-13 134 163 31
4.035535672449429e-14 -1.7421109585295802e-14 1.2955892055802748e-13 134 163 31
4.024367373633292e-14 -4.004524102184555e-14 1.2832951660959185e-13 134 163 31
4.07193776039063e-14 -2.374170331902528e-14 1.2876174735818036e-13 134 163 31
4.066140328086443e-14 -4.188123236886429e-14 1.282941174086602e-13 134 163 31
4.16752475086192e-14 -1.2541555217038172e-14 1.2873891134992238e-13 134 163 31
4.1947239952377924e-14 -4.2070936408830206e-15 1.2825977530484672e-13 134 163 31
4.1947239952377924e-14 -4.2070936408830206e-15 1.2825977530484672e-13 134 163 31
4.199669651210221e-14 -4.02228570546212e-14 1.2805747673198808e-13 134 163 31
4.205122510511465e-14 -3.587453888099189e-14 1.2800433727300914e-13 134 163 31
4.239683148825335e-14 -9.955150276992532e-15 1.2903226935274265e-13 134 163 31
4.218509358023051e-14 -2.68929369333544e-14 1.281419089761704e-13 134 163 31
4.259237751445648e-14 -1.814951218015535e-14 1.277620858500944e-13 134 163 31
4.3118506947445803e-14 -4.194100917801792e-14 1.2802781025004345e-13 134 163 31
4.274182800767003e-14 -2.7641833913889238e-15 1.26080976171547e-13 134 163 31
4.38015136585302e-14 -1.466234021674749e-14 1.2840831100247724e-13 134 163 31
4.369585138055791e-14 -2.4996003259846605e-14 1.2775516050871766e-13 134 163 31
4.3657474011783715e-14 -3.6562834465798943e-14 1.2752285664073548e-13 134 163 31
4.3714184561668284e-14 -4.517942958767382e-14 1.2761112425010296e-13 134 163 31
4.438145001246091e-14 -1.017794874124062e-14 1.2796491297151213e-13 134 163 31
4.437544285479898e-14 -3.402233193523091e-14 1.270725739259751e-13 134 163 31
4.4860250632489454e-14 -2.1262326074062907e-14 1.273523116390035e-13 134 163 31
4.5143423911151934e-14 -1.460550938818441e-14 1.2807163912286618e-13 134 163 31
4.5178585942858354e-14 -4.522821190917209e-14 1.2642376024090546e-13 134 163 31
4.563297846147882e-14 -3.2574119047728764e-14 1.2698914456880234e-13 134 163 31
4.60481872359593e-14 -2.8382317316159e-14 1.273616628827412e-13 134 163 31
4.596892866901882e-14 -4.283887087837106e-14 1.2694172427628325e-13 134 163 31
-0.04620343214615193 0.5510017398811535 -0.5234818198703826 138 152 30
-0.04620344363468694 0.551001688500103 -0.5234818304095912 138 152 30
4.6157098732317256e-14 -2.3899966343022064e-14 1.2708977208293615e-13 134 163 31
4.612639209391339e-14 -2.9858331519055925e-14 1.2696008795057973e-13 134 163 31
4.612639209391339e-14 -2.9858331519055925e-14 1.2696008795057973e-13 134 163 31
4.6615133492610913e-14 -1.7591813829221856e-14 1.2721548532483584e-13 134 163 31
4.596475449065475e-14 -5.9992489152989846e-15 1.2451099721567938e-13 134 163 31
4.6976230414289e-14 -4.5634364207380526e-14 1.261343189184333e-13 134 163 31
4.7264177570642205e-14 -2.668691819179142e-14 1.263893503744562e-13 134 163 31
4.677045223008304e-14 -8.642434708963816e-15 1.2420540128083718e-13 134 163 31
4.778572286132099e-14 -3.001230178007602e-14 1.267626005248615e-13 134 163 31
4.76991560941116e-14 -4.1526196814956756e-14 1.265900904066919e-13 134 163 31
4.857110875067412e-14 -2.512052218529067e-14 1.2615058195102058e-13 134 163 31
4.770643380119441e-14 -1.1191443144388177e-14 1.2402274031982768e-13 134 163 31
4.890864799202317e-14 -4.316794656651114e-14 1.2639218285263182e-13 134 163 31
4.8780078555025336e-14 -2.3431485972422866e-14 1.2572716034508352e-13 134 163 31
4.8176432054835086e-14 -7.723519051794608e-16 1.2383963212542204e-13 134 163 31
4.9315738802737166e-14 -2.98489294533414e-14 1.2631409319115855e-13 134 163 31
2.7052040368950485 -3.3346605744088347 -0.5126565714170097 138 152 30
5.01349043660268e-14 -2.506458582351989e-14 1.2543072591859883e-13 134 163 31
5.01349043660268e-14 -2.506458582351989e-14 1.2543072591859883e-13 134 163 31
5.0309149207672377e-14 -4.238639265421139e-14 1.2565516932083048e-13 134 163 31
4.964037265010185e-14 -1.3625136514373339e-14 1.2350797468085872e-13 134 163 31
5.055284058659744e-14 -2.3704020517267832e-14 1.2520156623691686e-13 134 163 31
5.055284058659744e-14 -2.3704020517267832e-14 1.2520156623691686e-13 134 163 31
5.065188245505399e-14 -2.2291242406081123e-14 1.2510831129755595e-13 134 163 31
5.086093018643635e-14 -3.568679233416708e-14 1.2531524483470197e-13 134 163 31
5.076492069593097e-14 -8.044177879416945e-15 1.2395539781238918e-13 134 163 31
5.134749979265711e-14 -2.0381332187821392e-14 1.2446612479826563e-13 134 163 31
5.1768725889194886e-14 -3.3661441689591953e-14 1.2499906437615088e-13 134 163 31
5.0697296973553976e-14 -1.321529263482253e-15 1.2221109269971303e-13 134 163 31
5.1540714784189395e-14 -8.8195154169168e-15 1.2362463483461816e-13 134 163 31
5.171538991857218e-14 -7.331672398911467e-15 1.2401836285355627e-13 134 163 31
-0.10702899620525053 0.6382499705799666 -0.5251729149969508 138 152 30
5.211579594526644e-14 -1.1613672127935501e-14 1.231067521144033e-13 134 163 31
5.30741459624489e-14 -3.500085150095339e-14 1.247467705306135e-13 134 163 31
5.189753588354974e-14 -1.7054458880340806e-15 1.2196851601614656e-13 134 163 31
5.189753588354974e-14 -1.7054458880340806e-15 1.2196851601614656e-13 134 163 31
5.30976528208011e-14 -2.867374577792542e-14 1.2429135140806097e-13 134 163 31
5.219247614391548e-14 -1.7272565417335815e-14 1.2215811587105996e-13 134 163 31
5.303736101561554e-14 -3.808250305273146e-14 1.2416318515874603e-13 134 163 31
5.248839896250003e-14 -4.051297600345116e-15 1.220295565984575e-13 134 163 31
5.365593223633641e-14 -3.2254384438931e-14 1.2444290931924729e-13 134 163 31
5.310942319063615e-14 -1.5505595397057037e-14 1.2220194474388268e-13 134 163 31
5.3606726398364515e-14 -5.918134499171071e-15 1.2271347132886135e-13 134 163 31
5.432398712183588e-14 -3.4487357258438257e-15 1.2042856946045677e-13 134 163 31
5.432398712183588e-14 -3.4487357258438257e-15 1.2042856946045677e-13 134 163 31
5.501891666868583e-14 -1.594391292440451e-14 1.2163806474650013e-13 134 163 31
5.4863940132524394e-14 -2.2473735654567062e-14 1.2029416904865003e-13 134 163 31
5.717687879148309e-14 -3.0458468338229227e-15 1.1880452947376358e-13 134 163 31
6.338237768833965e-14 9.836008316697637e-15 1.3067059370305834e-13 134 163 31
-9.224182040241551 -8.614927438248454 0.9837169017985334 118 185 56
-6.281592202481092 -6.583739772244599 -1.1814958136211389 141 137 34
-7.3538872317548565 -8.309152433159058 2.5373086950476624 75 211 131
-4.505774176485647 -5.600298040058483 -3.455634399929302 139 85 57
-4.418325815639082 -5.41859823949184 -3.443523096370859 139 85 57
-4.382817558705841 -5.423515793813994 -3.3571038934235693 140 87 56
-3.103826212383734 -7.765846976649459 -3.294525897559211 140 89 55
-2.9420852553225028 -7.971399508705769 -3.376514581248479 140 87 56
-3.986249033190793 -4.886740933755158 -3.142619489159027 140 92 53
-2.9429458813066414 -7.679283282908365 -3.9895351334470934 136 72 62
-2.1439222650209877 -8.652445593790803 -3.9162821830458516 137 73 62
-2.653550231187763 -7.988985488922111 -3.503727258094107 139 84 57
-2.5170199878853894 -9.464853721456167 -0.13520414500062206 135 160 30
-2.32672795131487 -10.01424354192438 -0.4330353309030208 138 153 30
-3.1986462739340196 -5.517984267080372 -3.740927252941352 138 77 60
-2.2938061169408313 -8.80859427269539 -3.0670535025815644 141 94 52
-2.222562896341009 -8.574394889803392 -2.716723588363914 141 103 48
-2.4143056642200853 -7.632949414194359 -2.8073255051162898 141 100 49
-1.8954944268226934 -8.923357765613366 -3.26845054350865 140 90 54
-3.429254656614511 -4.935624615411081 -3.963012219038454 136 72 62
-2.8203718605765626 -7.268076788331877 -2.701554778257656 141 103 48
-2.345653274102326 -7.450666749544955 -3.5242034790382473 139 84 57
-3.0144463250840827 -7.382457049193585 1.2226514867418659 114 189 64
-3.193785960651342 -5.27903619628114 0.9039163022513925 120 183 53
-2.6993447866315825 -7.059422480557355 -3.274062693127596 140 89 55
-2.7241880738906668 -7.0034865882593325 -3.0602232523183464 141 94 52
-2.4917289119841413 -6.376665598486596 -2.5727252658334723 141 106 47
-3.2919044838691764 -5.603314845580257 0.07387034755216071 133 165 32
-2.858821775893609 -3.595914565240752 -2.58023942583278 141 106 47
-3.0253340709968963 -3.9880234040418037 -2.9576703155491018 141 97 51
-2.6444126151228335 -5.846616495328513 -0.15719706923816634 135 160 30
-2.3473156474949026 -6.259385195979779 -2.002842718092655 142 119 42
-2.286694672084211 -5.785555003110951 -2.847819043416196 141 99 50
-2.7764931071827785 -3.712781761477996 -2.9261014896598243 141 98 50
-2.5730395046609886 -3.1731360601589342 -2.7664606717176445 141 101 49
-2.2322118669094895 -5.358110697204552 -2.3971084185724787 142 110 45
-2.275395609754014 -5.766355975322549 -1.899167473421646 142 122 40
-2.112981452901815 -5.8939159078838355 -2.269150368744019 142 113 44
-2.50259977273761 -3.3072275252372147 -3.5522265538791054 139 83 58
-1.952509088351064 -5.861631392920196 -2.270993605462939 142 113 44
-2.2022752010422666 -2.9489906902623853 -2.8665150615189985 141 99 50
-2.3233386571676475 -3.4120395337886875 -3.9592012094247546 136 72 62
-1.5633143596564583 -7.246219292477881 -0.3315107283677283 137 156 30
-1.4528772769186895 -5.7298512126882954 -2.601375185947541 141 105 47
-1.6290634637657857 -4.7816501236313815 -2.44407933957232 142 109 46
-1.5062647699015186 -4.837023425346591 -3.3570111932187796 140 87 56
-1.1686985668660645 -5.563656647411008 -3.8394246011508186 137 75 61
-1.086975101461295 -5.882895776963025 -3.179421676630189 140 92 53
-1.5037495189191714 -5.677291999079455 -0.985189081488287 140 141 33
-0.0126329434571133 -6.221248030367023 3.9513481615881867 24 226 218
-0.9339925410248975 -5.771977209066122 -1.9839353448450958 142 120 41
-0.10656196775088222 -7.861250253573621 -0.7089277685474322 139 148 31
-0.6548365918002637 -6.26047181444111 -1.3758850759557761 141 133 36
-2.91040077192202 -0.11730120773938157 -4.346346486371362 132 61 66
-0.7188130702144786 -5.695643146157259 -1.629622734342921 142 127 38
-0.036103189054840445 -5.304185181311695 1.5156175577646067 107 194 77
0.884083872428699 -7.6932250324640785 2.8742219502983657 62 216 151
-0.4628499463766653 -4.33748075020177 1.2059874253721126 114 189 64
-1.4346698780792806 -4.7520746367294935 -0.6531413670140693 139 149 31
-0.6025405264998624 -5.554560579415112 -1.6152517478963069 142 127 38
-0.45922111542834965 -5.8547729033585885 -1.3858547483373178 141 133 36
-0.7111972790872858 -5.1540752152902085 -1.7060695529863827 142 125 39
-0.5077130179554505 -5.771830298236185 -0.9852806071012985 140 141 33
0.36542180014478376 -4.789584544603489 2.2343355871283435 85 207 114
-0.4324241973616696 -5.817288699859285 -0.9853646681907102 140 141 33
-1.0587603309881355 -4.590396413923369 -1.0051537973907605 140 141 33
0.11571693611125511 -4.35076494605118 1.4073967349734824 109 193 73
0.5364363770068739 -4.958203333686736 2.8528080000101914 62 216 151
0.5048105563026053 -4.864870903584992 2.8501155022420974 62 216 151
-0.24473008458331158 -4.08447772858473 1.1812683912591972 115 188 62
0.7255669953474913 -5.639276124211791 2.150069114483019 88 206 109
-2.5129135265360056 1.0018879270430094 -3.9375912617995867 137 73 62
0.8304245302122899 -4.744220283992712 2.8150088266956503 63 215 149
0.9064890378204349 -4.928211588709257 2.9084841022896653 60 216 154
0.45803700806988124 -3.9748202083643824 1.3557611693828653 111 191 69
-0.7713772306232867 -5.488516088779756 -0.05224621474679969 134 162 31
1.0447119070252184 -4.396962502105216 3.0398039043102507 55 218 162
1.6174372009579283 -4.971905220077094 4.5474230620205836 36 231 253
0.589761700627466 -3.561228176519546 1.7489307269571377 100 199 89
1.8702495570914253 -4.612621989331515 4.5483578898279875 36 231 253
-1.7916979761104324 -3.0792899105463354 -1.4044981410672788 141 132 36
-1.7405233973988308 -3.3053481060663676 -1.4208379343632696 141 132 36
-2.2050037384033203 -4.759223937988281 -1.7867621183395386 142 123 40
-1.526616694216386 -3.2507274202138166 -1.4564216644243302 141 131 37
-0.25908881136780737 -5.990757848952142 -2.9007753162798524 141 98 50
-0.17381535333756037 -5.968185767346117 -3.0726100683657087 141 94 52
-1.0679434797973406 -4.3439083402254575 -1.6295696721374096 142 127 38
-0.13742706152178608 -5.858271737908161 -2.9062571291077517 141 98 50
-1.4776053428649902 -4.595681667327881 -1.5689188241958618 142 129 38
-1.4776053428649902 -4.595681667327881 -1.5689188241958618 142 129 38
-0.8950077295303345 -5.6804280281066895 -2.1673738956451416 142 115 43
-0.8950077295303345 -5.6804280281066895 -2.1673738956451416 142 115 43
-0.9254578460237014 -4.444555776313228 -1.6767418522873303 142 126 39
-1.5881829261779785 -4.399924278259277 -1.5548104047775269 142 129 38
-0.8828873234070358 -3.7602813673591453 -1.9304229997221218 142 121 41
-1.1041937131123865 -3.859836286950605 -1.530549079474454 142 129 38
-0.596463143825531 -6.316746234893799 -2.7804818153381348 141 101 49
-0.14030838546125146 -5.718798861810527 -2.688613865352404 141 103 48
-1.4469003677368164 -4.463736534118652 -1.5379934310913086 142 129 38
-0.726990818977356 -5.882615089416504 -2.3737952709198 142 111 45
-0.7405343055725098 -5.829092979431152 -2.3285887241363525 142 112 44
-0.8344972133636475 -5.526220798492432 -2.0869174003601074 142 117 42
-0.8344972133636475 -5.526220798492432 -2.0869174003601074 142 117 42
-0.9146642190434673 -4.160890109658595 -1.606773229716591 142 128 38
0.06956645130852557 -5.703932945937842 -3.0664731397881066 141 94 52
-1.4270524978637695 -4.3329010009765625 -1.5075310468673706 142 130 37
-1.4946321249008179 -4.25269079208374 -1.5161060094833374 142 130 37
-0.3033366166484912 -5.244877294554337 -2.1779610961014835 142 115 43
-0.6451931595802307 -5.767172813415527 -2.3214962482452393 142 112 44
-0.6451931595802307 -5.767172813415527 -2.3214962482452393 142 112 44
-0.17598110129202993 -5.408676762551946 -2.362510542750942 142 111 45
-0.7990459581590948 -4.175531689739414 -1.6227994817065483 142 127 38
-0.15429212687916805 -5.425427269976035 -2.3915021857538274 142 110 45
-1.4302767515182495 -4.197318077087402 -1.4910447597503662 142 130 37
-1.3466203212738037 -4.22843599319458 -1.471696138381958 141 131 37
-0.9297099400372468 -3.7925569669903396 -1.5260333726714694 142 130 37
-1.4558990001678467 -4.1141791343688965 -1.4974899291992188 142 130 37
-1.4279202222824097 -4.076818943023682 -1.483613133430481 141 131 37
0.03491707240035857 -5.502526692591711 -2.6214208302167283 141 105 47
-0.4213579595088959 -6.084814548492432 -2.668339490890503 141 104 48
0.14666524507251655 -5.566708932459072 -2.8813749990623783 141 99 50
-0.810663597502206 -3.8469366792593545 -1.5473776445946208 142 129 38
-1.2598819732666016 -4.1261796951293945 -1.4346458911895752 141 132 36
-0.6507577300071716 -5.303838729858398 -2.0129740238189697 142 119 42
-0.8265353441238403 -4.826205730438232 -1.6880946159362793 142 126 39
-0.8265353441238403 -4.826205730438232 -1.6880946159362793 142 126 39
-0.7056673169136047 -5.110445499420166 -1.8705894947052002 142 122 40
-0.13566902503766542 -5.141783665908137 -2.1971814411376487 142 115 43
-0.37021493911743164 -5.981900215148926 -2.606531858444214 141 105 47
0.24746315879412062 -5.487327555193749 -2.93066343215209 141 97 51
-0.7933969497680664 -4.726959228515625 -1.6449565887451172 142 127 38
-1.1821622848510742 -4.023609161376953 -1.3973511457443237 141 133 36
-0.15978451868905785 -4.960620630431247 -2.0720676926214674 142 118 42
-0.23239324986934662 -6.25242280960083 -2.9103527069091797 141 98 50
-0.24124009907245636 -6.177933216094971 -2.8369975090026855 141 100 49
-1.1725863218307495 -3.9341938495635986 -1.3809869289398193 141 133 36
-0.6077249646186829 -5.016423225402832 -1.8414801359176636 142 122 40
-0.6077249646186829 -5.016423225402832 -1.8414801359176636 142 122 40
-0.6451336741447449 -4.886830806732178 -1.7594972848892212 142 124 39
-0.15061309933662415 -6.293732643127441 -2.989108085632324 141 96 51
-0.6439374089241028 -4.815099239349365 -1.7194397449493408 142 125 39
-0.5684902667999268 -4.944389343261719 -1.8117791414260864 142 123 40
-0.6437709331512451 -4.718528747558594 -1.6697288751602173 142 126 39
-0.20879654586315155 -5.976953983306885 -2.679668664932251 141 103 48
-0.2944081723690033 -5.653872966766357 -2.378934860229492 142 110 45
0.1792507701329923 -5.167414247877906 -2.412468759267181 142 110 45
-1.0948275327682495 -3.7543532848358154 -1.3302991390228271 141 134 36
0.14956202429204124 -5.047378939313198 -2.2909962808582125 142 113 44
-0.20722255110740662 -5.660050868988037 -2.422945261001587 142 109 46
0.48085511721351215 -5.2414906046600755 -2.9689158350295304 141 97 51
